# .PCD v0.7 - Point Cloud Data file format
VERSION 0.7
FIELDS x y z intensity
SIZE 4 4 4 4
TYPE F F F F
COUNT 1 1 1 1
WIDTH 1304
HEIGHT 1
VIEWPOINT 0 0 0 1 0 0 0
POINTS 1304
DATA ascii
-0.27143899 0.66344094 0.19649062 0
-0.25533512 0.66459578 0.17571309 0
-0.23313545 0.66677034 0.14843249 0
-0.22334231 0.66644824 0.1359874 0
-0.22184536 0.66604966 0.13366938 0
-0.21520403 0.66639602 0.12547749 0
-0.20556688 0.66741478 0.11341454 0
-0.1900605 0.66872704 0.094576769 0
-0.18124563 0.66916519 0.083056889 0
-0.16077991 0.67115635 0.058200363 0
-0.15775305 0.67260438 0.053718496 0
-0.14981464 0.67207545 0.044144016 0
-0.13263687 0.67391914 0.022356939 0
-0.30564728 0.66137356 0.23881805 0
-0.29737636 0.66177392 0.22695449 0
-0.28512144 0.66283995 0.21282756 0
-0.27779442 0.66338438 0.20498225 0
-0.27057901 0.66434014 0.19475991 0
-0.26238054 0.66613448 0.1840536 0
-0.26120868 0.66532195 0.18302622 0
-0.20980999 0.6701622 0.11873374 0
-0.20009196 0.67105579 0.1066037 0
-0.1816099 0.67334634 0.08315561 0
-0.30434757 0.66472834 0.23749655 0
-0.29982868 0.66480505 0.23166427 0
-0.29750031 0.66386586 0.2269347 0
-0.28517145 0.66501689 0.21311861 0
-0.286277 0.66601127 0.21452785 0
-0.28027749 0.66544336 0.20739976 0
-0.27059546 0.6664629 0.19483489 0
-0.26220345 0.66848212 0.18459672 0
-0.2601763 0.66853023 0.18161613 0
-0.24303049 0.66988873 0.15937337 0
-0.24053827 0.66991597 0.15649167 0
-0.23438683 0.66951752 0.14927295 0
-0.20702708 0.67258328 0.11528838 0
-0.19396824 0.67362803 0.098532371 0
-0.18361335 0.67351282 0.085783057 0
-0.17709246 0.67518932 0.077331349 0
-0.17583479 0.67433459 0.075937539 0
-0.15774012 0.67666054 0.05359707 0
-0.15653121 0.67764485 0.051956784 0
-0.13515733 0.67813247 0.025198942 0
-0.29982477 0.66694117 0.23165172 0
-0.29419717 0.66640031 0.224381 0
-0.24075675 0.67194432 0.15640828 0
-0.2372223 0.67128158 0.15219215 0
-0.23035739 0.67205578 0.14351642 0
-0.20949371 0.67413533 0.11797924 0
-0.20151117 0.67404646 0.10790762 0
-0.19065747 0.67493135 0.094303556 0
-0.18964383 0.6761027 0.09301769 0
-0.18311588 0.67639095 0.084443502 0
-0.15129992 0.67933172 0.045429658 0
-0.14148864 0.67896569 0.031143811 0
-0.30335584 0.66797018 0.2360698 0
-0.28551638 0.6693002 0.21284267 0
-0.28226942 0.67055202 0.20898676 0
-0.26628828 0.67101753 0.18894321 0
-0.26124519 0.67168289 0.18317905 0
-0.2441299 0.67305332 0.16096967 0
-0.22314659 0.67612934 0.13417909 0
-0.21120134 0.67713523 0.11965431 0
-0.20818047 0.67567903 0.11657437 0
-0.20625864 0.67572784 0.1137427 0
-0.20386256 0.67595649 0.11078651 0
-0.19923837 0.67642385 0.10510407 0
-0.19062391 0.67711979 0.094296515 0
-0.18762833 0.67818791 0.089945018 0
-0.18307301 0.67852658 0.084539786 0
-0.16538924 0.68103093 0.062019292 0
-0.15408957 0.68125534 0.048084315 0
-0.13234395 0.68244338 0.022150679 0
-0.27965486 0.67260391 0.20622763 0
-0.27648753 0.6735397 0.20151946 0
-0.24789476 0.67433631 0.16308668 0
-0.24748953 0.67466962 0.16342381 0
-0.24198103 0.67512929 0.15785658 0
-0.23681501 0.67703593 0.15109137 0
-0.2090798 0.67950553 0.11622541 0
-0.20522773 0.67892945 0.11208464 0
-0.18990557 0.68025839 0.092800595 0
-0.1789045 0.68086863 0.078636184 0
-0.17337067 0.68288743 0.072133176 0
-0.16402449 0.68313897 0.054660201 0
-0.30151165 0.67234468 0.23305199 0
-0.30066246 0.67342395 0.23153353 0
-0.29727256 0.67263168 0.22711435 0
-0.28335607 0.67353588 0.21042383 0
-0.26074463 0.67701268 0.18177521 0
-0.24397182 0.67710197 0.16096035 0
-0.22432336 0.67919719 0.13548684 0
-0.21975 0.67996502 0.12951893 0
-0.2184906 0.68075997 0.12808827 0
-0.2106819 0.68047458 0.11820798 0
-0.29267487 0.67633909 0.2204996 0
-0.26958209 0.67847073 0.19275132 0
-0.24369648 0.67927605 0.16098955 0
-0.24319524 0.68036151 0.1595903 0
-0.23806559 0.68055046 0.15058011 0
-0.22600669 0.68247408 0.13731447 0
-0.22348207 0.68238825 0.13384429 0
-0.21027042 0.68298227 0.11846209 0
-0.29612231 0.67800844 0.22542828 0
-0.29447442 0.67775053 0.22184572 0
-0.28743631 0.6785447 0.21357775 0
-0.28329265 0.67780608 0.21043575 0
-0.27910393 0.67972106 0.20433414 0
-0.27349183 0.67912108 0.19705933 0
-0.27232617 0.68035537 0.1959146 0
-0.26564479 0.68108094 0.18696964 0
-0.26432449 0.68006587 0.18558577 0
-0.2348225 0.68321782 0.14770192 0
-0.22491518 0.68362838 0.13595888 0
-0.21771361 0.68393642 0.12653407 0
-0.28078032 0.6810326 0.20613724 0
-0.27357388 0.68125767 0.19716236 0
-0.26573113 0.68325341 0.18724138 0
-0.23735653 0.68528318 0.15056738 0
-0.23614129 0.68430787 0.14953604 0
-0.22257119 0.68600762 0.13288796 0
-0.21899445 0.687226 0.12401437 0
-0.18356976 0.68885732 0.084083803 0
-0.30594075 0.68131894 0.23743889 0
-0.27226394 0.68598729 0.19442326 0
-0.26833564 0.68729603 0.19027239 0
-0.27226031 0.68814677 0.19435146 0
-0.3090837 0.68829888 0.24100643 0
-0.28448978 0.68874937 0.20877165 0
-0.28385955 0.68998802 0.2072784 0
-0.30553693 0.68896401 0.23629642 0
-0.035777841 -0.40207165 0.24103466 0
-0.02081006 -0.38681602 0.23011482 0
-0.012683015 -0.37964636 0.22802863 0
-0.021992337 -0.37259722 0.23178521 0
-0.0080655217 -0.36707932 0.22599816 0
0.00058576465 -0.36184818 0.22484007 0
-0.032411359 -0.35517144 0.24122995 0
-0.029205929 -0.3551116 0.23955235 0
-0.027116258 -0.35274583 0.23859364 0
-0.0041418448 -0.35519129 0.22713837 0
-0.028043516 -0.3509559 0.2390677 0
-0.0088947341 -0.34993351 0.23049265 0
0.0021086931 -0.34599036 0.22774014 0
-0.00090543926 -0.34427714 0.22943184 0
-0.027749579 -0.33022624 0.24017394 0
-0.0055680797 -0.329705 0.23699415 0
-0.027016822 -0.3195973 0.24287361 0
-0.02773831 -0.31632084 0.24423286 0
-0.015536122 -0.30352825 0.24441022 0
-0.024450831 -0.29756176 0.24972495 0
0.0022741705 -0.29321802 0.24959925 0
0.0012029856 -0.29164696 0.25140861 0
-0.0042299703 -0.28656328 0.25855088 0
0.010913655 -0.28789145 0.24958855 0
-0.037425421 -0.28166807 0.26925471 0
0.0034380779 -0.26569769 0.2743625 0
0.053731009 -0.26541266 0.25534895 0
0.070032641 -0.26387793 0.25102532 0
0.064346537 -0.26018232 0.25173 0
0.059141159 -0.25838304 0.25313097 0
0.086811557 -0.26009339 0.24182037 0
0.039278515 -0.25515872 0.25817642 0
0.077436164 -0.25634578 0.24422711 0
0.085980266 -0.25632164 0.24015048 0
0.036048502 -0.25341785 0.25974062 0
0.033535592 -0.25344449 0.26029822 0
0.037896976 -0.25345981 0.25939783 0
0.045214891 -0.25305665 0.25653037 0
0.072860911 -0.24896745 0.2424688 0
0.073627099 -0.2470239 0.24158448 0
0.094586864 -0.24968834 0.22757024 0
0.092409357 -0.24607365 0.22563124 0
0.067872882 -0.23821039 0.23933652 0
0.06095314 -0.23082763 0.2394847 0
0.067767248 -0.22893521 0.23593876 0
0.10256371 -0.23032998 0.20709077 0
0.065129861 -0.22520801 0.23572412 0
0.068166286 -0.22333613 0.23408368 0
0.068084195 -0.22333193 0.23389304 0
0.070263103 -0.22332188 0.23299962 0
0.075074315 -0.21158472 0.22547159 0
0.086142644 -0.21090108 0.21821871 0
0.10214092 -0.20958063 0.20682234 0
0.074534386 -0.20422748 0.22412315 0
0.072350591 -0.20423403 0.22497064 0
0.10772578 -0.20465554 0.20590872 0
0.10941148 -0.20464641 0.20488012 0
0.069707781 -0.2005412 0.22537461 0
0.085853219 -0.19933705 0.21854192 0
0.11077501 -0.19925518 0.20537552 0
0.11278646 -0.19924611 0.20471814 0
0.076743811 -0.19581026 0.22147942 0
0.068362921 -0.1913639 0.22431672 0
0.10126899 -0.19332695 0.21069628 0
0.069417492 -0.18955405 0.22404981 0
0.071234286 -0.1894895 0.22304624 0
0.074183881 -0.19133744 0.22189733 0
0.079760775 -0.19048184 0.22051948 0
0.078750744 -0.18865269 0.22071254 0
0.084056303 -0.18868823 0.2190043 0
0.069360062 -0.18589994 0.22398368 0
0.067436144 -0.18591142 0.22462353 0
0.07686688 -0.18520784 0.22150272 0
0.081404626 -0.18690591 0.21984753 0
0.066487432 -0.18407816 0.22505549 0
0.068765566 -0.18410473 0.22457677 0
0.10631528 -0.1855813 0.20970434 0
0.11441448 -0.18556398 0.20647699 0
0.057636485 -0.18069384 0.22773588 0
0.074502647 -0.18040299 0.2229577 0
0.10763755 -0.18378381 0.20992088 0
0.11106378 -0.18199684 0.20944062 0
0.11945195 -0.1836299 0.20540002 0
0.060645536 -0.17887582 0.22668359 0
0.11184224 -0.18019187 0.20923477 0
0.11319034 -0.17831644 0.20942399 0
0.12754449 -0.17812562 0.20582032 0
0.044887275 -0.1715602 0.22819957 0
0.099950612 -0.1721032 0.22783959 0
0.10356438 -0.16078867 0.22836751 0
0.11579543 -0.15651432 0.21703538 0
0.11213589 -0.142755 0.23264939 0
0.11615397 -0.13876753 0.23068598 0
0.038329609 -0.1340397 0.22561857 0
0.11699758 -0.1349327 0.23242307 0
0.037379213 -0.13242744 0.22716126 0
0.13631131 -0.12627283 0.21998531 0
0.13243252 -0.12298334 0.22314855 0
0.1323276 -0.11753155 0.22538301 0
0.044897601 -0.10362878 0.25596321 0
0.04838711 -0.10169561 0.25517112 0
0.053174242 -0.10168884 0.25253651 0
0.14392015 -0.10480557 0.22343257 0
0.04904069 -0.099886522 0.25498646 0
0.14302038 -0.1030367 0.22443354 0
0.055004656 -0.09268254 0.25387198 0
0.1346283 -0.094771378 0.25382596 0
0.052993104 -0.089543201 0.25590608 0
0.05705677 -0.089412145 0.25419524 0
0.063773587 -0.082424454 0.25537413 0
0.048685916 -0.080725454 0.26103467 0
0.052295476 -0.078916758 0.26037681 0
0.064188853 -0.080388725 0.25595444 0
0.15527947 -0.078400984 0.22933778 0
0.15739501 -0.077192262 0.22932652 0
0.055781618 -0.07338807 0.2608116 0
0.056149185 -0.066168889 0.26176688 0
0.059462205 -0.064338811 0.26087308 0
0.067758545 -0.062349841 0.25939089 0
0.065525323 -0.058741134 0.26139978 0
0.07911469 -0.059077036 0.25765261 0
0.17278932 -0.060163971 0.23319483 0
0.069831744 -0.055024218 0.26027238 0
0.15967314 -0.050143614 0.25596333 0
0.18071234 -0.050098293 0.22773874 0
0.064369485 -0.044091739 0.26169369 0
0.069950059 -0.037843704 0.25582349 0
0.07198061 -0.037844107 0.25491184 0
0.1583721 -0.037981875 0.25711638 0
0.066317797 -0.035990514 0.2558834 0
0.15500754 -0.031198539 0.25546286 0
0.065534413 -0.028737098 0.25408036 0
0.17318249 -0.030148767 0.22254166 0
0.17629842 -0.026274309 0.21903032 0
0.17630678 -0.026274934 0.2190482 0
0.17794575 -0.022671521 0.21741679 0
-0.081698239 0.0037620962 0.05223373 0
-0.077541851 0.036375403 0.047940224 0
-0.054134153 0.041561663 0.051105365 0
-0.065489292 0.08472538 0.07624995 0
-0.039782099 0.10554738 0.24046141 0
-0.05626829 0.09875071 0.086756878 0
-0.044612981 0.11281769 0.099428013 0
-0.048156928 0.11113991 0.097435862 0
0.10898148 0.15364112 0.1491591 0
0.10063085 0.15575121 0.15279871 0
0.098993152 0.15599506 0.15378365 0
0.11595297 0.15691011 0.14422992 0
0.087086275 0.15877937 0.15855595 0
0.1007978 0.15933667 0.15156004 0
0.098430768 0.16212039 0.15283725 0
0.11456874 0.16298832 0.14350083 0
0.084043011 0.16855298 0.16725719 0
0.085183531 0.16913213 0.16271132 0
0.08330594 0.17069386 0.1668258 0
0.083631039 0.17204244 0.16484171 0
0.10397877 0.17037655 0.14685258 0
0.07888408 0.17381738 0.17451158 0
0.079012617 0.17787562 0.16847035 0
0.077380836 0.18074872 0.17129871 0
0.0075918958 0.1810564 0.1722959 0
0.087310433 0.18329452 0.14993769 0
0.096801996 0.18294625 0.14134115 0
0.0044670254 0.18805997 0.18385464 0
0.072731882 0.19247074 0.18154368 0
0.010343023 0.19477399 0.1831342 0
0.0090131611 0.19840817 0.18570772 0
0.012532629 0.19843687 0.1830166 0
0.071727529 0.2008435 0.18551564 0
0.0080921724 0.19980039 0.18731433 0
0.0080425069 0.20192458 0.18726188 0
0.07143797 0.20607121 0.18152452 0
0.13575803 0.20456256 0.1009563 0
0.01384037 0.20562164 0.18239304 0
0.016743101 0.20383762 0.18136629 0
0.017288238 0.20557921 0.1802111 0
0.017288513 0.2055227 0.18007067 0
0.010596737 0.2064922 0.18449819 0
0.070345387 0.2115161 0.18385682 0
0.07183595 0.21159653 0.17997432 0
0.12092386 0.21238311 0.10981954 0
0.013810426 0.21279748 0.1813215 0
0.019015126 0.21301271 0.17754182 0
0.01434283 0.21515597 0.18024978 0
0.013075583 0.21876006 0.18045497 0
0.010759823 0.21913747 0.18177572 0
0.012617797 0.22238599 0.17977822 0
0.013935566 0.22445367 0.17844856 0
0.023124658 0.22547008 0.17486155 0
0.12992728 0.22990189 0.096393004 0
0.015122809 0.23148812 0.17687759 0
0.016492322 0.23069511 0.17601553 0
0.017318107 0.23084264 0.17583302 0
0.016562842 0.23264025 0.17613789 0
0.13243578 0.23500945 0.093746252 0
0.017299794 0.2344036 0.17544615 0
0.06504561 0.24620323 0.16775134 0
0.06421645 0.24919818 0.16342038 0
0.064114839 0.25090766 0.161594 0
0.11075945 0.26018232 0.097387083 0
-0.08876121 0.25410366 0.07237722 0
0.096383527 0.26578087 0.090271682 0
0.03017544 0.26757193 0.11970316 0
-0.09023995 0.25741565 0.067213655 0
-0.26297224 0.26210898 0.2530584 0
-0.23668361 0.26430076 0.21859556 0
-0.048020154 0.34730905 -0.037759274 0
-0.21943609 0.35694385 0.16546622 0
-0.26455671 0.36410403 0.21391758 0
-0.044564351 0.57127935 -0.078062661 0
-0.037015688 0.5803622 -0.08501894 0
-0.22730926 0.59465277 0.14748996 0
-0.048270974 0.64683509 -0.080013536 0
-0.09169554 0.66547728 -0.033368833 0
-0.07654877 0.67728752 -0.048322525 0
-0.055867713 0.67995739 -0.073482744 0
-0.054566298 0.68005157 -0.075482689 0
-0.2580629 0.67408645 0.17602992 0
-0.13748547 0.67943251 0.028513707 0
-0.13765359 0.68024635 0.027799129 0
-0.2900025 0.6820311 0.2161901 0
-0.2835229 0.68066031 0.20877618 0
-0.2839691 0.68247044 0.20932642 0
-0.27019316 0.68259448 0.192837 0
-0.27728736 0.68388259 0.20078799 0
-0.1848989 0.68791479 0.086175404 0
-0.22088827 0.68728387 0.12844974 0
-0.28622293 0.68933743 0.20984656 0
-0.26818931 0.69063389 0.18428278 0
0.032703333 -0.4320724 0.2635704 0
-0.0074961036 -0.42319417 0.24803737 0
-0.017838947 -0.41861963 0.24541926 0
-0.021260083 -0.41262043 0.2400156 0
-0.0037891865 -0.41388667 0.23723415 0
-0.032856006 -0.41005528 0.24480173 0
-0.017315522 -0.41097885 0.2372241 0
-0.02730538 -0.40395117 0.23651114 0
-0.0089710876 -0.40472001 0.23202431 0
-0.026548214 -0.40208566 0.23535481 0
-0.020161949 -0.40206647 0.23336345 0
-0.002356112 -0.40462983 0.2310403 0
-0.011485748 -0.39750057 0.23031476 0
-0.015971668 -0.39415228 0.22999349 0
-0.0081811324 -0.39389801 0.22867548 0
-0.015816525 -0.38862127 0.22888771 0
-0.00028036535 -0.38836378 0.22704345 0
0.0019837543 -0.3883146 0.22664118 0
-0.021626465 -0.38501877 0.23061684 0
-0.019467898 -0.38502717 0.23025408 0
-0.0010342672 -0.37599236 0.22547072 0
-0.039611708 -0.37163669 0.24432787 0
0.0004042387 -0.37237966 0.22402185 0
-0.0035653859 -0.3688069 0.22395387 0
-0.00092925131 -0.37050819 0.22386721 0
0.0045771971 -0.3687501 0.22341591 0
0.0049838424 -0.3600747 0.22387141 0
-0.0031019971 -0.35338724 0.22727689 0
0.010564059 -0.34977722 0.22543839 0
0.0069516376 -0.34976089 0.22525403 0
-0.01888724 -0.34814727 0.23616377 0
0.0098227933 -0.34632468 0.22598088 0
0.011815019 -0.34294093 0.22713017 0
-0.019861989 -0.33723038 0.23732862 0
-0.025705874 -0.33376813 0.23906389 0
-0.018034317 -0.33373943 0.23752248 0
-0.01467929 -0.33540738 0.23667938 0
-0.015431322 -0.33369088 0.23724511 0
-0.012640502 -0.33539587 0.2362245 0
-0.015933827 -0.33029222 0.23797396 0
-0.024664395 -0.32837117 0.24017215 0
-0.032362398 -0.32492864 0.24347931 0
-0.017529324 -0.3265388 0.23912263 0
-0.023473579 -0.32313153 0.24112642 0
-0.013512261 -0.32306719 0.23920837 0
-0.023166656 -0.31968465 0.24202624 0
-0.022084877 -0.31443846 0.24285033 0
-0.012066394 -0.31608766 0.23983589 0
-0.013569627 -0.31611913 0.24049437 0
-0.023124222 -0.31259942 0.24352297 0
-0.012392227 -0.31269637 0.2409347 0
-0.0078683943 -0.3126747 0.24109524 0
-0.0059781149 -0.31265378 0.24080104 0
-0.0218511 -0.3108241 0.24385867 0
-0.0044856891 -0.31095016 0.2416307 0
-0.022819292 -0.30905282 0.24458274 0
-0.0071234033 -0.30919266 0.24081555 0
-0.018983718 -0.30527991 0.24419934 0
-0.01149229 -0.30690801 0.24284336 0
-0.0025587231 -0.305197 0.24377033 0
-0.018585458 -0.3017692 0.24583498 0
-0.016433667 -0.30178899 0.24553546 0
0.0081585795 -0.29988778 0.24633512 0
0.013451248 -0.29812264 0.24587858 0
-0.021801904 -0.2921887 0.25217989 0
0.018696412 -0.29121357 0.24791291 0
0.0045055375 -0.28224355 0.25515881 0
0.0085372403 -0.28290105 0.25304317 0
0.012800485 -0.27935037 0.25366873 0
0.015143871 -0.27586588 0.25449556 0
0.072828025 -0.27313104 0.2546716 0
0.10745798 -0.27266294 0.25401339 0
0.044063903 -0.26376486 0.25609255 0
0.082829773 -0.26569971 0.24794084 0
0.084216058 -0.26627469 0.24743912 0
0.050616719 -0.26369005 0.25540292 0
0.055202857 -0.26364323 0.25487891 0
0.076849595 -0.26389009 0.24863651 0
0.026625335 -0.25707364 0.26110235 0
0.047474489 -0.25847596 0.25577113 0
0.030455858 -0.2552321 0.26080027 0
0.031674616 -0.25345874 0.26099893 0
0.047879189 -0.25301784 0.25613099 0
0.031053007 -0.2481253 0.2628049 0
0.032220803 -0.24989057 0.26237524 0
0.0319371 -0.24992485 0.26212364 0
0.066685557 -0.25075164 0.24651819 0
0.06548354 -0.2469466 0.24453455 0
0.069682509 -0.24376331 0.24139348 0
0.06777662 -0.23820107 0.2392621 0
0.10193358 -0.23783451 0.21059033 0
0.10631113 -0.22921373 0.20498776 0
0.11429058 -0.22840849 0.20277107 0
0.035371639 -0.22283134 0.25387946 0
0.11437386 -0.2171143 0.2017833 0
0.098677829 -0.21369371 0.208175 0
0.039233968 -0.21005881 0.24615106 0
0.11591874 -0.2010278 0.20371523 0
0.12016657 -0.19260184 0.20396546 0
0.076682642 -0.18870303 0.22130239 0
0.090854585 -0.18859234 0.21756282 0
0.11728598 -0.18728115 0.20518798 0
0.056047276 -0.1843859 0.2291843 0
0.082117781 -0.18339613 0.22122943 0
0.11741351 -0.18369088 0.20608845 0
0.055550486 -0.18066873 0.2283802 0
0.11871853 -0.1819295 0.20621869 0
0.060761407 -0.17532642 0.2264995 0
0.060171872 -0.17354506 0.22543928 0
0.068084598 -0.17178331 0.22580993 0
0.069246501 -0.17009461 0.22553444 0
0.13119379 -0.17134762 0.20751169 0
0.092788279 -0.16148449 0.2308332 0
0.12292205 -0.15858391 0.21243107 0
0.035921387 -0.15558174 0.22256079 0
0.036271125 -0.15378204 0.22083735 0
0.12127456 -0.15473208 0.21458882 0
0.12738955 -0.15425652 0.21248135 0
0.12782232 -0.13840593 0.21895686 0
0.12534446 -0.13648885 0.22147986 0
0.12705523 -0.1364903 0.22000879 0
0.13439892 -0.13699688 0.21678177 0
0.047200933 -0.13400598 0.22335535 0
0.12158202 -0.13526288 0.22497872 0
0.049268469 -0.12724209 0.22663665 0
0.11689185 -0.1278895 0.24502838 0
0.14280233 -0.12470199 0.2186912 0
0.14229462 -0.1262278 0.21840799 0
0.13825524 -0.12280978 0.21999735 0
0.13704011 -0.12119298 0.22107068 0
0.046245225 -0.11254913 0.24093971 0
0.055732369 -0.10896384 0.24520186 0
0.055240467 -0.10535779 0.24909395 0
0.065544948 -0.10496815 0.24774632 0
0.074796811 -0.10493535 0.24664956 0
0.14858203 -0.10650884 0.22054493 0
0.074052498 -0.1014218 0.24747449 0
0.075846866 -0.097979836 0.24785355 0
0.068103626 -0.094512925 0.25018102 0
0.063334301 -0.089358009 0.2526406 0
0.060533538 -0.087643534 0.25391835 0
0.15637058 -0.085951895 0.22568733 0
0.067999288 -0.082394242 0.25450569 0
0.14079355 -0.08118543 0.26341805 0
0.15656571 -0.082848579 0.22638291 0
0.1595048 -0.083128229 0.22555301 0
0.065330058 -0.078644052 0.25621083 0
0.15181343 -0.077903278 0.23271933 0
0.15912841 -0.077925503 0.22791815 0
0.16141883 -0.073067263 0.23046216 0
0.046619982 -0.069751792 0.26588926 0
0.14863606 -0.065681532 0.26397604 0
0.17132218 -0.066946596 0.2310442 0
0.16853584 -0.065187357 0.23219517 0
0.080246463 -0.057320602 0.25783902 0
0.17866722 -0.053255182 0.22892243 0
0.087208837 -0.052092291 0.2565673 0
0.18199319 -0.051901128 0.22810462 0
0.094223678 -0.04843856 0.25486976 0
0.078141794 -0.046836883 0.25725853 0
0.088462934 -0.046752658 0.25477168 0
0.087322474 -0.04499479 0.25415373 0
0.071833521 -0.041915253 0.25696167 0
0.070313573 -0.032373101 0.25334534 0
0.08130908 -0.032379419 0.25008917 0
0.15720154 -0.030443124 0.26084736 0
0.057692811 -0.028740332 0.25764403 0
0.079074785 -0.028772697 0.24974462 0
0.092701659 -0.030505627 0.24735242 0
0.091478348 -0.028745607 0.24696496 0
0.072712272 -0.026839957 0.25104395 0
0.07991612 -0.026999265 0.24899989 0
0.092524305 -0.027027249 0.24641317 0
0.09224543 -0.023539409 0.24565768 0
0.16930832 -0.022487685 0.2218999 0
0.17375071 -0.022682957 0.21784237 0
0.17885613 -0.020863295 0.21659642 0
-0.081025861 -0.010964088 0.063407525 0
-0.077053376 -0.011317059 0.062480554 0
-0.073347583 -0.0013607964 0.054090951 0
-0.075914875 0.0020342097 0.052599534 0
-0.07729695 0.0037201196 0.051791955 0
-0.078667007 0.015744857 0.047993507 0
-0.077703014 0.020706087 0.048291549 0
-0.077464826 0.029724777 0.047850192 0
-0.076317966 0.031380251 0.04757734 0
-0.077399775 0.037982285 0.046658836 0
-0.054902762 0.043279171 0.051539399 0
-0.0839338 0.062910646 0.061342657 0
-0.075044163 0.069203198 0.065014794 0
-0.048899934 0.10089815 0.08597938 0
-0.042519547 0.11197843 0.096464388 0
0.12051989 0.12750354 0.15180767 0
0.11888634 0.12970893 0.15226784 0
0.12228315 0.12815738 0.15040651 0
0.10885979 0.13042419 0.15641001 0
0.11199284 0.13218489 0.15541318 0
0.11575925 0.13186988 0.15346655 0
0.11711605 0.1315805 0.15147191 0
0.10533667 0.13244639 0.16092303 0
0.1095688 0.13750266 0.15366888 0
0.099953309 0.13985726 0.15822569 0
0.092235684 0.14156111 0.16048509 0
0.10005099 0.14494225 0.15560251 0
0.10903697 0.14988397 0.14950347 0
0.10907187 0.15006603 0.14947683 0
0.10623029 0.15183567 0.14995554 0
0.11309035 0.15365554 0.14817095 0
0.11654694 0.15194739 0.14417177 0
0.1078555 0.15540041 0.14881593 0
0.086935833 0.15635584 0.16271821 0
-0.020300835 0.1560386 0.18540761 0
0.086707622 0.15884177 0.16260999 0
0.084415466 0.16185288 0.17290533 0
0.10756797 0.1621844 0.14807039 0
0.079760179 0.16619776 0.17979574 0
0.11202171 0.16723011 0.14621559 0
0.081400394 0.16850416 0.17280638 0
0.14931908 0.1693389 0.14208865 0
0.092967629 0.17034988 0.15321302 0
0.076671556 0.17250232 0.1823695 0
0.10159507 0.17764841 0.14552921 0
0.10882366 0.17966481 0.1440329 0
0.074442506 0.18254612 0.1882765 0
0.075061426 0.18155997 0.18175179 0
-0.0035199448 0.18200545 0.18960986 0
0.073508009 0.18600611 0.1878272 0
0.073900223 0.18595742 0.18549615 0
0.071081609 0.19143651 0.19260916 0
0.07115078 0.19222368 0.18942055 0
0.014290243 0.19112335 0.17805728 0
0.018207684 0.19109954 0.177295 0
0.018086664 0.19487138 0.1792872 0
0.018249922 0.2037776 0.17991954 0
0.0072297007 0.20539291 0.18858767 0
0.069680154 0.20856483 0.18802112 0
0.069822147 0.20822729 0.18757817 0
0.0068366304 0.20660971 0.18851531 0
0.0078513324 0.21143253 0.18548244 0
0.012387805 0.21172519 0.18285915 0
0.027101792 0.21227904 0.1763694 0
0.0045738444 0.2147774 0.18845522 0
0.067733392 0.21974005 0.18309322 0
0.0065448284 0.21790586 0.1855318 0
0.0051815286 0.22190787 0.18580139 0
0.021242626 0.22191729 0.17593163 0
0.13385224 0.22993006 0.094977096 0
0.0078482032 0.23330264 0.18187442 0
0.0092971027 0.23435681 0.18067458 0
0.021860197 0.23620658 0.17374709 0
0.028619461 0.23568888 0.17274612 0
0.0090127736 0.23645987 0.1804325 0
0.0093453825 0.23814945 0.17973483 0
0.018273465 0.23865341 0.17439276 0
0.02653826 0.23912527 0.1729188 0
0.014818422 0.23870067 0.17628467 0
0.015607812 0.24051507 0.17555243 0
0.062813371 0.24279685 0.1752485 0
0.014607117 0.24230202 0.17581382 0
0.018319182 0.24229537 0.17376277 0
0.034364499 0.24422403 0.16991556 0
0.014759228 0.24759762 0.17356741 0
0.012953758 0.25126332 0.1715081 0
0.083114579 0.25938624 0.12482249 0
0.078870237 0.25973266 0.13034213 0
0.087868243 0.26105154 0.11374737 0
0.092867181 0.25962049 0.11290912 0
0.087803885 0.26222241 0.10980878 0
-0.091678992 0.25918549 0.069672801 0
-0.069685832 0.25832146 0.025437808 0
-0.078883991 0.26179129 0.019871742 0
-0.032193352 0.26009393 -0.037814222 0
-0.048936855 0.34774536 -0.033182599 0
-0.11422637 0.35303903 0.02700723 0
-0.12129533 0.35388047 0.034423184 0
-0.22301905 0.35806394 0.16716361 0
-0.039952487 0.57119763 -0.083727442 0
-0.045109145 0.57451421 -0.077373959 0
0.046633773 0.68022573 -0.056361936 0
-0.08853595 0.66409814 -0.033245094 0
0.043870792 0.68274128 -0.068905421 0
-0.22479549 0.67256457 0.13506007 0
-0.026405435 0.67910737 -0.10539901 0
-0.29569715 0.68365031 0.22149977 0
-0.29847479 0.68834299 0.22523192 0
-0.29135454 0.68886513 0.20930579 0
-0.30078542 0.6914224 0.23021868 0
-0.27958804 0.69179261 0.2061466 0
-0.29632074 0.69316727 0.21915591 0
-0.033847999 -0.42714745 0.28142545 0
-0.022622209 -0.41960561 0.24849769 0
-0.012940045 -0.40943164 0.23504603 0
0.0053222924 -0.4045198 0.23202142 0
0.0068823099 -0.40085465 0.23069885 0
-0.0053427815 -0.39739931 0.22926813 0
6.0863793e-05 -0.39544398 0.22864947 0
0.0029217899 -0.38657254 0.2267772 0
0.013892442 -0.38110614 0.2266441 0
-0.012921795 -0.37426358 0.2273246 0
0.017784886 -0.36008477 0.22314447 0
0.020613119 -0.35840428 0.2241424 0
0.029253118 -0.35607451 0.22555798 0
0.0019495636 -0.35157472 0.22595298 0
0.0049127489 -0.34979719 0.22544912 0
0.010156594 -0.34987086 0.2252537 0
-0.017280225 -0.34264958 0.2369577 0
0.0033131912 -0.34082383 0.23052338 0
-0.0151788 -0.33902752 0.236285 0
0.0079605803 -0.3373313 0.23136774 0
0.012515664 -0.33730295 0.23138461 0
-0.011484589 -0.33151257 0.23719031 0
0.004452087 -0.32719916 0.23662359 0
-0.013716117 -0.3195698 0.23993579 0
-0.010086823 -0.3160466 0.23957181 0
0.072312623 -0.31512427 0.2682122 0
-0.0090238377 -0.31096846 0.24142134 0
0.010594197 -0.31003934 0.24379233 0
0.0096078068 -0.308321 0.24407724 0
-0.0015370548 -0.3035084 0.24443159 0
0.07415019 -0.30488896 0.26956606 0
0.017300665 -0.30149573 0.24527535 0
-0.00046944618 -0.29497844 0.24964887 0
-0.013436064 -0.29253319 0.25161532 0
0.017577559 -0.29307771 0.2475574 0
0.027659841 -0.28263226 0.25044021 0
0.017797031 -0.28100589 0.25149673 0
0.038713798 -0.280999 0.25193408 0
0.030666381 -0.27761114 0.25214344 0
0.044712275 -0.27419156 0.25438115 0
0.069325671 -0.2749154 0.25601539 0
0.067965582 -0.27311617 0.25557896 0
0.036932513 -0.26899529 0.25522193 0
0.040345542 -0.26719022 0.2552228 0
0.047927834 -0.26543927 0.25468826 0
0.049660139 -0.26544553 0.25515935 0
0.033262037 -0.26230252 0.25718677 0
0.05729492 -0.26360941 0.25449893 0
0.091071412 -0.26343438 0.24300784 0
0.033989452 -0.26039195 0.2577278 0
0.036856122 -0.26213241 0.25715232 0
0.093630314 -0.26201698 0.24107689 0
0.03715615 -0.25859898 0.25792325 0
0.10354005 -0.25382376 0.22646263 0
0.096807092 -0.24468318 0.21986368 0
0.099314228 -0.24627146 0.21942002 0
0.11039059 -0.24524744 0.21311647 0
0.12418503 -0.21541207 0.20190743 0
0.11361641 -0.21352372 0.20197549 0
0.1159443 -0.19743522 0.20390037 0
0.082188338 -0.18007508 0.22206888 0
0.081044018 -0.17840359 0.22287124 0
0.12320256 -0.17977804 0.20572844 0
0.081689909 -0.17666221 0.22345665 0
0.080848619 -0.1749755 0.22467351 0
0.13455941 -0.16961187 0.20780322 0
0.058258548 -0.16492227 0.22324243 0
0.061310232 -0.16662389 0.22388545 0
0.073176935 -0.1666429 0.22560993 0
0.075949982 -0.16488142 0.22572482 0
0.0733051 -0.16314393 0.22500604 0
0.13010404 -0.16275233 0.20947826 0
0.1265915 -0.15931682 0.21122697 0
0.039232187 -0.15722616 0.22300252 0
0.047215015 -0.15540224 0.22148278 0
0.1231651 -0.15435262 0.21378553 0
0.054179445 -0.15174071 0.22085232 0
0.040753275 -0.14856835 0.21941829 0
0.10855067 -0.14632529 0.24045473 0
0.04172457 -0.14343043 0.22030759 0
0.042765275 -0.1451239 0.2197814 0
0.10953361 -0.14279246 0.24189356 0
0.046630338 -0.14170912 0.22065663 0
0.14259662 -0.13844697 0.21612734 0
0.14199126 -0.12971053 0.21751654 0
0.14705563 -0.12440988 0.21791643 0
0.05186794 -0.12297504 0.22978878 0
0.14616551 -0.11930187 0.2184284 0
0.043821894 -0.11392988 0.24059829 0
0.075188965 -0.10835537 0.24561283 0
0.074473664 -0.11002938 0.24511597 0
0.059943095 -0.10728431 0.24624404 0
0.066600204 -0.10668023 0.24678195 0
0.15283459 -0.10311501 0.22174853 0
0.076020345 -0.10140707 0.24728394 0
0.087022334 -0.09957391 0.24852952 0
0.087793186 -0.1012972 0.24824452 0
0.10103959 -0.09542504 0.25288916 0
0.061456859 -0.094727293 0.25134102 0
0.074555114 -0.090992302 0.25082961 0
0.079973072 -0.092693985 0.2502929 0
0.13218236 -0.090684578 0.26665786 0
0.045551993 -0.090589702 0.25914791 0
0.13122813 -0.088937163 0.26463231 0
0.13034025 -0.087644108 0.26461905 0
0.1336714 -0.088408321 0.2637724 0
0.15629579 -0.08940883 0.22511354 0
0.055924878 -0.087761313 0.25494564 0
0.13219477 -0.083262675 0.2650007 0
0.070277989 -0.082339317 0.25448918 0
0.074259579 -0.082312077 0.2541303 0
0.16781679 -0.082968727 0.22492683 0
0.066312239 -0.080370098 0.25567901 0
0.11401445 -0.080358632 0.25990716 0
0.080574319 -0.078890547 0.25491446 0
0.059703529 -0.076916859 0.2584464 0
0.098333895 -0.075362928 0.25678617 0
0.10580879 -0.075650841 0.25717518 0
0.13785015 -0.07440301 0.26713827 0
0.079842582 -0.073721975 0.25561398 0
0.16426037 -0.073829696 0.22931129 0
0.10175268 -0.070964344 0.25838682 0
0.071398899 -0.06951911 0.25736985 0
0.17906594 -0.070209175 0.22917959 0
0.17999294 -0.068530336 0.22965959 0
0.18183249 -0.068500124 0.23001629 0
0.099770024 -0.067529686 0.25773552 0
0.1789653 -0.066840246 0.23007658 0
0.079554275 -0.062512092 0.25732037 0
0.122889 -0.062816411 0.26682758 0
0.17895108 -0.063476115 0.22993982 0
0.060256258 -0.06063275 0.26189032 0
0.066730931 -0.060545545 0.2602317 0
0.17898393 -0.060183223 0.22966 0
0.11968648 -0.058790274 0.26271692 0
0.11192678 -0.055402994 0.25943938 0
0.10056174 -0.055563815 0.25624052 0
0.12045845 -0.051483069 0.25947407 0
0.076442644 -0.050334591 0.25835872 0
0.088362038 -0.050303012 0.25626883 0
0.13712324 -0.048708074 0.26517561 0
0.092121556 -0.044968408 0.25334707 0
0.093148991 -0.043219067 0.25244921 0
0.12293391 -0.040422142 0.25542223 0
0.11081544 -0.038360082 0.25061512 0
0.19001344 -0.039402276 0.22252202 0
0.084643394 -0.034209743 0.24956229 0
0.084712893 -0.034205839 0.24955103 0
0.1281261 -0.030189462 0.2524679 0
0.1572632 -0.028227806 0.26136002 0
0.18424881 -0.029597625 0.21832889 0
0.16661993 -0.023560435 0.22459355 0
0.18207335 -0.022651225 0.21602815 0
0.15944359 -0.020579755 0.23591721 0
0.16360055 -0.022378549 0.22767648 0
0.18100199 -0.02084776 0.21601659 0
0.16364363 -0.018830113 0.22598636 0
0.179764 -0.019064441 0.21557713 0
0.16050982 -0.016741484 0.22965848 0
0.17018846 -0.017438516 0.219165 0
0.16850179 -0.016818434 0.21989366 0
0.1581385 -0.014232896 0.23161596 0
0.17098632 -0.011737257 0.21667948 0
0.17025878 -0.0080254748 0.21537548 0
0.17374226 -0.0096158087 0.21397409 0
0.17632665 -0.0031211972 0.21144477 0
-0.079103224 -0.010130934 0.062162269 0
-0.070897542 -0.010480173 0.060680412 0
-0.072190747 -0.0087776184 0.059822638 0
0.16441187 0.0054921657 0.21381763 0
0.16635954 0.0054889023 0.21288949 0
-0.079776466 -0.0021812394 0.05584481 0
0.1675425 0.011274911 0.21005902 0
0.17480715 0.011000656 0.20699993 0
0.16921324 0.014873341 0.20807806 0
-0.069553666 0.0059593245 0.051106837 0
0.16951805 0.020356126 0.20643198 0
0.16874953 0.024013758 0.20526835 0
-0.075794585 0.010804847 0.049130145 0
-0.070149757 0.010863855 0.049607426 0
-0.079647139 0.014075167 0.048330829 0
-0.076893315 0.012454607 0.04868095 0
-0.078097351 0.01419273 0.048176263 0
-0.07390853 0.014138915 0.04865814 0
0.17775661 0.028031304 0.20210075 0
0.17018031 0.031160548 0.20265055 0
-0.070143215 0.019105077 0.047976099 0
-0.075333148 0.020710453 0.047750324 0
-0.068918295 0.024869204 0.047963373 0
-0.053569049 0.024045363 0.050635763 0
-0.073732108 0.026483491 0.04732335 0
-0.074490704 0.028062329 0.047225002 0
-0.054197166 0.029832348 0.05009884 0
-0.073229216 0.033061981 0.04740626 0
-0.058121189 0.033115998 0.050055623 0
-0.075801902 0.034672424 0.047261238 0
-0.073247291 0.03639321 0.047466796 0
-0.055444386 0.039938703 0.051137038 0
0.16998401 0.054762706 0.19470501 0
-0.070831783 0.041404173 0.04813401 0
-0.052983448 0.043289453 0.051363271 0
0.16781497 0.065149024 0.19200826 0
-0.081058353 0.060402229 0.057929315 0
0.16495346 0.078243822 0.18801489 0
-0.079249717 0.065846339 0.062179767 0
0.16237849 0.081773579 0.18717214 0
0.08472687 0.081415847 0.14521134 0
0.16424906 0.085211515 0.18571147 0
0.15380841 0.090643138 0.1878998 0
-0.059176352 0.077433318 0.067269795 0
0.15820982 0.092410415 0.18480566 0
0.1533595 0.094231576 0.18695322 0
0.16083167 0.09413065 0.1835084 0
0.14962883 0.096019357 0.18733767 0
0.15865445 0.099519655 0.18161884 0
0.16461268 0.10247503 0.18046612 0
-0.058581304 0.091040567 0.079260267 0
0.13267677 0.11629146 0.15597543 0
0.11066596 0.11796817 0.16674367 0
0.11996017 0.11689647 0.16169643 0
0.13770857 0.1174093 0.15368527 0
0.10859765 0.11994845 0.16644803 0
0.13473722 0.12016429 0.15161592 0
0.13663463 0.12210637 0.14946705 0
0.10764842 0.1258086 0.16211772 0
0.098000437 0.13591819 0.16173384 0
0.12599048 0.14032125 0.14571023 0
0.12922829 0.14601628 0.14396811 0
0.084375173 0.14828621 0.17983967 0
0.09419179 0.14843236 0.15678564 0
0.089147955 0.15171824 0.17305475 0
0.097037256 0.15103407 0.1560168 0
0.13319662 0.15662383 0.14531764 0
0.083979562 0.15859951 0.17659473 0
0.13372728 0.16022097 0.14688891 0
0.10959238 0.16219477 0.14752179 0
0.079487637 0.16502301 0.18227211 0
0.13646688 0.16530712 0.14622667 0
0.0777013 0.16666873 0.18705115 0
0.094012395 0.16542841 0.15317532 0
0.1183424 0.16610722 0.14336076 0
0.10265782 0.16711478 0.14837348 0
0.094204336 0.16897617 0.15332896 0
-0.0042901263 0.16946043 0.19341338 0
0.072879031 0.18243609 0.19484827 0
0.074308485 0.18129571 0.19418198 0
0.12090328 0.18170594 0.13153078 0
0.097862601 0.18282203 0.14292982 0
0.071536005 0.18622823 0.19714624 0
0.030310489 0.19895618 0.17955285 0
0.0043432713 0.20340554 0.19458267 0
0.03273873 0.20558719 0.17866218 0
0.029246673 0.21228515 0.1763418 0
0.0017793849 0.21332656 0.19312838 0
0.063979581 0.22186027 0.18946674 0
0.033673041 0.23075159 0.17417896 0
0.063044041 0.23243554 0.18324798 0
0.032735094 0.23241244 0.17382145 0
0.13156725 0.23330294 0.09444166 0
0.0051979795 0.23683475 0.18397468 0
0.061440036 0.24145077 0.17824665 0
0.0048481673 0.23894061 0.18377677 0
0.037571155 0.24157013 0.17133445 0
0.010827318 0.24765579 0.17548278 0
0.036669984 0.24963291 0.16377139 0
0.13060254 0.251329 0.089730389 0
0.075323746 0.25748736 0.13847029 0
0.0059220046 0.25851214 0.14948788 0
0.069757313 0.26401395 0.12140877 0
0.09342742 0.2633689 0.097296722 0
0.049912803 0.26493615 0.12737134 0
0.092261314 0.26463723 0.093850158 0
-0.026007075 0.2652325 0.14537555 0
-0.23898523 0.26322889 0.22404388 0
-0.037185933 0.2586773 -0.029800922 0
-0.033698354 0.25804824 -0.03096899 0
-0.032499619 0.31700522 -0.047290392 0
-0.049302861 0.34717405 -0.036410462 0
-0.24744962 0.36205584 0.18891132 0
-0.30968073 0.36648202 0.26664752 0
-0.31163621 0.36811072 0.26583356 0
-0.038568303 0.42084825 -0.07809151 0
-0.037768573 0.53852755 -0.083238028 0
0.14339495 0.68615609 0.013899453 0
-0.037967071 0.65329862 -0.087340198 0
-0.087579563 0.667615 -0.034179907 0
-0.14418513 0.68010992 0.036913946 0
-0.056920689 0.67897153 -0.071942262 0
-0.041463867 0.67783535 -0.090498388 0
-0.0055309683 -0.4348501 0.26941586 0
-0.034011051 -0.4250536 0.28051114 0
0.0044618547 -0.41485184 0.23754162 0
-0.014103014 -0.40202105 0.23175779 0
0.010187544 -0.40098846 0.23165119 0
0.014390223 -0.39713031 0.22922978 0
0.01734326 -0.39884239 0.23036981 0
0.015665106 -0.38975042 0.22771347 0
0.036962152 -0.38957018 0.23386738 0
-0.010156576 -0.38672775 0.2282601 0
0.0091134161 -0.3863458 0.22683254 0
0.014508374 -0.38461685 0.22730374 0
0.026176296 -0.38652915 0.22973275 0
0.019783109 -0.38282478 0.22759339 0
0.037697703 -0.38442379 0.23351553 0
0.018918991 -0.38110262 0.22721088 0
0.039002538 -0.38264841 0.23309252 0
0.014803335 -0.37933356 0.2263872 0
0.013683766 -0.37576509 0.22400457 0
0.01942347 -0.37212813 0.22369847 0
0.014687784 -0.36865056 0.22296417 0
0.026706666 -0.36674279 0.22415659 0
0.02984684 -0.35884404 0.2257798 0
0.028346814 -0.35441491 0.2258001 0
0.034082189 -0.35082346 0.2280421 0
0.021732032 -0.34798169 0.22639632 0
0.0013790876 -0.34081966 0.23031002 0
-0.00050265342 -0.34087026 0.22960719 0
0.015461609 -0.33895209 0.23104975 0
0.0030394271 -0.33744881 0.23118633 0
0.014522612 -0.33728552 0.23168346 0
0.0044862181 -0.31771141 0.24018052 0
0.015470147 -0.31836715 0.24239495 0
0.01894588 -0.31996006 0.24256307 0
0.074255466 -0.31854516 0.26783383 0
0.072337598 -0.31856686 0.26761547 0
0.061618268 -0.31695515 0.26571983 0
0.077077836 -0.31681663 0.26855937 0
0.063079402 -0.31353933 0.26814961 0
0.0048617721 -0.31007206 0.24259636 0
0.0755786 -0.31109601 0.26889044 0
0.0038026869 -0.30843359 0.24296048 0
0.0069632679 -0.30671787 0.24378404 0
0.077713877 -0.30021486 0.2725634 0
-0.011606421 -0.29531577 0.24904343 0
-0.0055090934 -0.29407138 0.25044161 0
0.02564209 -0.28947604 0.24906734 0
0.016144767 -0.28435355 0.2497938 0
0.044887066 -0.27923629 0.25366321 0
0.047220662 -0.27754158 0.25499302 0
0.0076997951 -0.27475703 0.25819889 0
0.033713683 -0.27582356 0.25185001 0
0.033615991 -0.27069014 0.25460497 0
0.038493775 -0.27057785 0.254067 0
0.048179425 -0.27237931 0.25500107 0
0.0501711 -0.27235112 0.25529504 0
0.029978774 -0.26745266 0.25553289 0
0.10085839 -0.26309663 0.24247524 0
0.1165722 -0.22842345 0.20271629 0
0.12881292 -0.21711165 0.20400846 0
0.12681529 -0.21038786 0.20236108 0
0.12740135 -0.20451987 0.20329431 0
0.1224404 -0.19954783 0.20351681 0
0.12587526 -0.19825891 0.20294085 0
0.12577234 -0.19150062 0.2032665 0
0.13088265 -0.19309908 0.20432654 0
0.12891923 -0.18975738 0.20369193 0
0.13528934 -0.18781017 0.20557755 0
0.084823623 -0.1779305 0.22341028 0
0.087541521 -0.1795961 0.22350481 0
0.07209152 -0.17173812 0.22608152 0
0.074518621 -0.17005932 0.22697768 0
0.13715345 -0.17125639 0.20735961 0
0.1468247 -0.16908702 0.2100997 0
0.054688573 -0.16666423 0.22384381 0
0.078954726 -0.16662431 0.22675022 0
0.083629966 -0.16495711 0.22829726 0
0.1395008 -0.16425961 0.20956209 0
0.061292186 -0.16164041 0.22269779 0
0.074230388 -0.16145831 0.22510594 0
0.075888574 -0.16144621 0.2254861 0
0.070943847 -0.15814273 0.22399631 0
0.068159461 -0.15651613 0.22331327 0
0.069115385 -0.1548062 0.22323331 0
0.067768097 -0.15320063 0.22328889 0
0.047761843 -0.15014884 0.22018597 0
0.064983949 -0.14824349 0.22244021 0
0.061937898 -0.14660183 0.22207379 0
0.097772613 -0.14728871 0.23797333 0
0.14091544 -0.1481113 0.2125099 0
0.048764348 -0.14505744 0.22026104 0
0.067335188 -0.14318031 0.22377166 0
0.047622785 -0.14001215 0.22110328 0
0.062776208 -0.14158747 0.22265479 0
0.066628292 -0.14151628 0.22361004 0
0.1091554 -0.14098421 0.2436029 0
0.13384211 -0.14043693 0.21616444 0
0.069572046 -0.13856681 0.22477004 0
0.13070782 -0.13884005 0.21718639 0
0.13699313 -0.13492261 0.21711448 0
0.052793071 -0.13220143 0.22416729 0
0.059331417 -0.13206783 0.2246725 0
0.066835836 -0.13201588 0.2265256 0
0.050442383 -0.12887444 0.22600737 0
0.057909161 -0.12713978 0.22692841 0
0.15198483 -0.12602247 0.21763659 0
0.15694322 -0.12566632 0.21932799 0
0.066163927 -0.12248142 0.23240122 0
0.082438827 -0.12160045 0.23791647 0
0.14814587 -0.11929555 0.21865183 0
0.15216002 -0.11922567 0.21787381 0
0.14710434 -0.11759214 0.21880487 0
0.089315712 -0.11153986 0.24506602 0
0.11569905 -0.11244519 0.25284085 0
0.089912757 -0.10988181 0.24686545 0
0.15100197 -0.10992454 0.21978283 0
0.065800875 -0.10840189 0.24574098 0
0.092586443 -0.10820593 0.24746817 0
0.093092471 -0.10281461 0.24878213 0
0.10137476 -0.10207929 0.25103083 0
0.15469566 -0.10147411 0.22192514 0
0.10201456 -0.097108059 0.25316021 0
0.1130604 -0.094591625 0.25853536 0
0.11508274 -0.094545014 0.2583335 0
0.16087578 -0.094542809 0.22276816 0
0.096965238 -0.090667777 0.25391829 0
0.10143231 -0.090447925 0.25438276 0
0.16296881 -0.091257259 0.2227495 0
0.095953763 -0.089019246 0.25411338 0
0.098104313 -0.085528888 0.25540268 0
0.1139008 -0.087125726 0.25993556 0
0.16949011 -0.086180948 0.22396186 0
0.1030246 -0.082120597 0.25795844 0
0.16551858 -0.082989857 0.22531945 0
0.087625697 -0.08054626 0.25493202 0
0.097283617 -0.080420472 0.25666258 0
0.16703916 -0.079637922 0.22636753 0
0.17101002 -0.079597749 0.22611374 0
0.0843191 -0.078868255 0.25534207 0
0.089364082 -0.077157736 0.25582379 0
0.093268782 -0.077115968 0.25630933 0
0.096211955 -0.078756623 0.25676057 0
0.088248655 -0.075398847 0.25631362 0
0.10146515 -0.075509064 0.25729069 0
0.16269486 -0.076170936 0.22842994 0
0.096921638 -0.073656164 0.25698584 0
0.10423343 -0.073994756 0.25770742 0
0.11548436 -0.073582128 0.26126859 0
0.12057112 -0.073411159 0.26305473 0
0.12061968 -0.073494345 0.26282278 0
0.098267451 -0.070931666 0.25658467 0
0.1725551 -0.068655476 0.23057675 0
0.087325841 -0.064204872 0.25648123 0
0.085899547 -0.062577978 0.25686207 0
0.18093365 -0.063455589 0.229958 0
0.1000465 -0.060598068 0.25840256 0
0.1202572 -0.060456488 0.2636492 0
0.12200543 -0.060434423 0.26431873 0
0.12472233 -0.054216318 0.26223317 0
0.13160436 -0.045331731 0.26014251 0
0.13763255 -0.045291927 0.26320747 0
0.17993703 -0.043132823 0.22527057 0
0.046010107 -0.041279927 0.27139065 0
0.18250248 -0.039501175 0.2216208 0
0.11286627 -0.036548585 0.24969819 0
0.17932591 -0.036496408 0.22204494 0
0.18154106 -0.036444291 0.22094434 0
0.18355614 -0.036416501 0.22099584 0
0.10340418 -0.026859328 0.24579579 0
0.12644948 -0.019119903 0.24674311 0
0.18650234 -0.019341446 0.21560314 0
0.15673183 -0.014850557 0.25283572 0
0.15513717 -0.012417413 0.25129426 0
0.18681845 -0.014447346 0.21368629 0
0.044478118 -0.016221449 0.16050726 0
0.15964228 -0.0051755756 0.22522601 0
0.1810765 -0.0044717938 0.21044508 0
0.046969511 -0.0080592856 0.15545073 0
0.04886461 -0.0080545768 0.1547285 0
-0.053847134 -0.0073484406 0.060971752 0
0.052913867 -0.0014356822 0.15190941 0
0.05752559 -0.0025033355 0.14894867 0
-0.078551501 -0.0066209733 0.059042603 0
-0.072168916 -0.0060997978 0.057492107 0
0.054345757 -0.00027490407 0.15079972 0
0.058657899 -0.00064762682 0.14866686 0
0.057647377 0.0011828691 0.149014 0
0.16286522 0.0055261552 0.21531036 0
0.18601301 0.0094479471 0.20799094 0
0.18424672 0.0094246343 0.20753583 0
0.16081348 0.013438344 0.21401799 0
0.15751548 0.015862219 0.21585202 0
0.16232267 0.018780544 0.20987231 0
0.064570203 0.014384702 0.1444076 0
0.15932411 0.020536542 0.21256346 0
0.16218877 0.020958498 0.20994878 0
-0.046711173 0.011142425 0.05766011 0
-0.069494255 0.012544155 0.04979213 0
-0.06701386 0.012458585 0.049932357 0
0.16738731 0.025788859 0.20475718 0
0.17185193 0.025761425 0.2037861 0
-0.071166649 0.017430738 0.048085097 0
-0.057460658 0.019095525 0.050956402 0
-0.051813684 0.01917769 0.052681766 0
0.1586536 0.033712462 0.20842183 0
0.16022466 0.035994753 0.20631203 0
0.16307372 0.034196287 0.2048493 0
0.069834247 0.031255737 0.14059788 0
0.1625326 0.037856892 0.20381758 0
-0.070709571 0.024846673 0.047702033 0
0.073890775 0.034825891 0.14043275 0
0.17681022 0.041300833 0.19890025 0
0.17579596 0.042971328 0.19821995 0
0.15924922 0.045606762 0.20270017 0
0.067774132 0.041782886 0.14045218 0
0.17244971 0.048168153 0.1970787 0
0.15925364 0.049300179 0.2009351 0
0.070281997 0.046113312 0.14188388 0
-0.071884766 0.039740846 0.047990859 0
0.15664721 0.054724172 0.20099336 0
-0.074204959 0.041354954 0.047634117 0
-0.062976956 0.041477174 0.049745202 0
0.078994811 0.050255314 0.1387102 0
-0.061185922 0.044952452 0.051468432 0
0.15836753 0.057969794 0.19804111 0
0.17395444 0.058097526 0.19426897 0
-0.051631287 0.046775356 0.052522346 0
0.15801752 0.061580509 0.19710055 0
0.16290207 0.059789062 0.19498101 0
0.16692503 0.059930488 0.19395098 0
0.075931296 0.056991756 0.14057162 0
0.15854065 0.063418597 0.1958977 0
-0.0523142 0.050211281 0.053680718 0
0.068013743 0.059912428 0.14415452 0
0.078434601 0.060001105 0.1402685 0
0.080268174 0.060343206 0.14005381 0
-0.061752547 0.051493496 0.053066999 0
-0.058058437 0.051579908 0.053427584 0
0.15853271 0.066762462 0.19432777 0
0.16019291 0.066890195 0.19349635 0
0.16552374 0.068565413 0.19131273 0
-0.062974453 0.056295618 0.054109417 0
0.16028763 0.070274472 0.19203612 0
0.075585455 0.068608701 0.14221656 0
0.081539512 0.068721488 0.14065704 0
0.15814635 0.073730811 0.19191158 0
0.1679673 0.072366938 0.18963468 0
0.074663222 0.070382848 0.14324385 0
0.075663507 0.072179064 0.14296609 0
0.080124781 0.072197869 0.14239764 0
0.16201857 0.076505601 0.189307 0
0.07971406 0.079606563 0.14856699 0
0.16882351 0.083037034 0.18666941 0
0.078861311 0.081457287 0.14969021 0
0.082506329 0.081429273 0.14684644 0
0.14765172 0.086104184 0.19478875 0
-0.060022481 0.073498383 0.06373214 0
-0.040753938 0.073915362 0.067101449 0
0.079711631 0.08397533 0.14937621 0
0.08721441 0.083102018 0.1458393 0
0.15104879 0.088818058 0.19021395 0
0.15449496 0.087039247 0.18859223 0
0.16907544 0.08888267 0.18415514 0
0.14844239 0.090589106 0.19186366 0
0.149857 0.090659589 0.19036612 0
-0.034543972 0.079087257 0.070771322 0
-0.061819606 0.080267653 0.070174962 0
0.14201719 0.094194964 0.1904791 0
-0.061798584 0.08222425 0.071892969 0
0.075252414 0.090957537 0.15390459 0
-0.059540775 0.083414838 0.072739832 0
0.13885379 0.097151309 0.18834096 0
-0.061768081 0.0857829 0.074721858 0
0.14632356 0.10046418 0.18383139 0
0.14084744 0.10226412 0.18111339 0
0.076734677 0.10389596 0.16730279 0
0.13732232 0.10541746 0.17648801 0
0.17611516 0.10886306 0.18299392 0
0.078562617 0.10827495 0.16591954 0
-0.048925079 0.098908365 0.084099583 0
-0.046588823 0.10009062 0.08447282 0
-0.046069533 0.1043791 0.088937864 0
-0.040174928 0.10722265 0.091334291 0
-0.043271668 0.10790463 0.091789715 0
0.078137338 0.11731404 0.1713731 0
0.099864498 0.12020676 0.1758011 0
0.12860581 0.12150116 0.15237352 0
0.094079465 0.12353201 0.17453015 0
0.12164877 0.1316371 0.14866328 0
0.083056688 0.14227699 0.19095582 0
0.084023654 0.14545615 0.18699065 0
0.12035397 0.14591371 0.14477381 0
0.14911407 0.15054415 0.14855427 0
0.1301069 0.15167807 0.14538047 0
0.15283999 0.15383156 0.14923337 0
0.077946171 0.15498577 0.19083697 0
0.078748107 0.15621532 0.18845353 0
0.14639315 0.15540002 0.14836472 0
0.15391289 0.15552424 0.14838234 0
0.07783407 0.15724669 0.19044003 0
0.13274848 0.15845384 0.14659885 0
0.075167984 0.16094331 0.19213668 0
0.074329361 0.17329936 0.20224723 0
0.071947828 0.18010901 0.20348844 0
0.072542951 0.18251918 0.19929138 0
0.1190387 0.18031327 0.14052856 0
0.13471876 0.18143295 0.11288153 0
-0.00049460679 0.18462248 0.19731548 0
-0.0003125295 0.18859865 0.20009917 0
-0.0060129613 0.19366561 0.1993607 0
0.033959873 0.19234012 0.18006912 0
0.029625595 0.20025216 0.17946491 0
0.0030062571 0.20345835 0.19753173 0
0.063302591 0.21101691 0.19656262 0
0.039034665 0.21882381 0.17749745 0
0.13298319 0.22818221 0.095733576 0
0.059426144 0.23254965 0.1855382 0
0.037420347 0.2341475 0.17433336 0
0.0022505745 0.23383962 0.19005486 0
0.0028860793 0.23514189 0.1875996 0
0.025969826 0.23404677 0.17339191 0
0.043267071 0.24083428 0.17232347 0
0.0015026852 0.24030633 0.19068438 0
0.05957821 0.24310531 0.17928112 0
0.0022176653 0.24480309 0.18429974 0
0.057967648 0.24783538 0.17504513 0
0.0035089105 0.24684452 0.18240869 0
0.052979156 0.25704592 0.16301584 0
-0.0073472485 0.26006711 -0.026135549 0
-0.029973421 0.31862247 -0.046532251 0
-0.032171946 0.33903879 -0.047526792 0
-0.070941292 0.34963071 -0.0204174 0
-0.036838509 0.55341399 -0.083726473 0
-0.039749123 0.59038216 -0.085502572 0
-0.040907882 0.60225457 -0.083873905 0
-0.037068054 0.63619304 -0.087623186 0
-0.040948302 0.66454506 -0.089258559 0
-0.1659165 0.68278539 0.060266603 0
-0.0054022074 -0.4327938 0.26839873 0
0.010995135 -0.40629661 0.23285723 0
0.012275949 -0.39898199 0.22909507 0
0.021882027 -0.39872152 0.23118514 0
0.039423794 -0.38898903 0.23514605 0
0.035426393 -0.38333434 0.2327722 0
0.018201828 -0.3775093 0.22622409 0
0.013837501 -0.37042344 0.22305691 0
0.035232283 -0.36776817 0.22708139 0
0.043414481 -0.36702704 0.2306861 0
0.024970658 -0.3566851 0.22529852 0
0.037494145 -0.35553718 0.22812364 0
0.057943866 -0.35471898 0.2394999 0
0.026239842 -0.35119024 0.22620955 0
0.013166875 -0.34971857 0.22424674 0
0.028996877 -0.34953338 0.22766718 0
0.023488551 -0.34466046 0.2278716 0
0.031310953 -0.34453243 0.23002318 0
0.028620698 -0.34621841 0.22841069 0
0.043683901 -0.34589958 0.23344976 0
0.047486268 -0.34592661 0.23562825 0
0.063584447 -0.3457914 0.2448287 0
0.043133363 -0.34267634 0.23482254 0
0.054728255 -0.34330785 0.23997039 0
0.055305213 -0.33827013 0.24283433 0
0.012271076 -0.33383346 0.23178798 0
0.015902422 -0.33399308 0.23396298 0
0.017127417 -0.33561599 0.23370177 0
