# .PCD v0.7 - Point Cloud Data file format
VERSION 0.7
FIELDS x y z intensity
SIZE 4 4 4 4
TYPE F F F F
COUNT 1 1 1 1
WIDTH 1305
HEIGHT 1
VIEWPOINT 0 0 0 1 0 0 0
POINTS 1305
DATA ascii
-0.14782023 0.65321058 0.37462223 0
-0.14888209 0.65249872 0.37359712 0
-0.18160152 0.65779006 0.34346905 0
-0.20685902 0.66025668 0.32086304 0
-0.21151391 0.66187513 0.31687909 0
-0.28232673 0.6721499 0.25119677 0
-0.29471093 0.67401773 0.24057381 0
0.051877908 0.6256631 0.55701846 0
0.041562073 0.62739438 0.54697835 0
0.027261995 0.62895918 0.53415698 0
0.0032970831 0.63309789 0.51234013 0
-0.0090351291 0.63438004 0.5013876 0
-0.05008626 0.64121121 0.46291199 0
-0.065020651 0.64197671 0.44922337 0
-0.072321296 0.64395571 0.44209889 0
-0.079758443 0.64517647 0.43606973 0
-0.10682774 0.64886636 0.41115367 0
-0.10562792 0.64813024 0.41220561 0
-0.10916606 0.64863431 0.40919051 0
-0.11797367 0.64973301 0.40123731 0
-0.13287866 0.65234286 0.38769239 0
-0.13511285 0.65252644 0.38551265 0
-0.1885879 0.66039705 0.33718443 0
-0.19970101 0.66113245 0.3273541 0
-0.25527194 0.66990656 0.27573702 0
-0.26503766 0.67056751 0.26724398 0
-0.26839089 0.67277867 0.26378345 0
-0.27829587 0.67276603 0.2549687 0
0.057323404 0.6265139 0.56139243 0
0.043071091 0.62880784 0.54841638 0
0.035949446 0.6301052 0.5420258 0
0.033263765 0.63009709 0.53993469 0
0.027376845 0.63072103 0.53406191 0
0.0087077543 0.633165 0.51732814 0
-0.017228656 0.63800752 0.4928613 0
-0.035799675 0.63959032 0.47662652 0
-0.044416048 0.64054477 0.46748996 0
-0.047002897 0.64214146 0.46612766 0
-0.078672364 0.64607501 0.43718132 0
-0.093930222 0.64812148 0.42327389 0
-0.12107106 0.6520471 0.39849964 0
-0.13149492 0.65340441 0.38907212 0
-0.1302814 0.65439892 0.39004433 0
-0.13507216 0.65414876 0.38549009 0
-0.14544576 0.65511799 0.37660015 0
-0.15330976 0.65793431 0.36930233 0
-0.15211543 0.65695554 0.37033507 0
-0.15881279 0.65726954 0.3641842 0
-0.17099744 0.65897262 0.3532187 0
-0.17266275 0.65983802 0.35160595 0
-0.2331526 0.66951299 0.29633567 0
-0.26239237 0.67228711 0.26899168 0
-0.28827846 0.67718595 0.24588749 0
-0.28686097 0.67582232 0.246639 0
-0.29447609 0.6777724 0.24031606 0
0.044310562 0.6298098 0.54943335 0
0.040660597 0.63019407 0.54597628 0
-0.0090145022 0.63796854 0.50086582 0
-0.0080391057 0.63712305 0.50219834 0
-0.037790291 0.64129275 0.47442332 0
-0.039104253 0.64196956 0.47335905 0
-0.057668395 0.64592552 0.45599654 0
-0.063727669 0.64619946 0.45027095 0
-0.082981385 0.64835411 0.43330058 0
-0.081794143 0.64924568 0.4342128 0
-0.081574045 0.64935511 0.43414032 0
-0.1078293 0.6515922 0.41022027 0
-0.10915083 0.65249109 0.4091863 0
-0.11139616 0.65257442 0.40696803 0
-0.11383606 0.65408403 0.40478355 0
-0.12345608 0.65410894 0.39650533 0
-0.13149256 0.65517408 0.38899589 0
-0.15771744 0.66021538 0.36513671 0
-0.15987623 0.66029054 0.36268747 0
-0.17260528 0.66163063 0.3513808 0
-0.1802631 0.66351372 0.34438163 0
-0.18614319 0.66384357 0.33908722 0
-0.22112653 0.6695444 0.30691692 0
-0.22493616 0.67008662 0.30387104 0
-0.24391615 0.67206162 0.286365 0
-0.24511093 0.67284036 0.28533304 0
-0.2719408 0.67559326 0.26065287 0
-0.28053635 0.6779986 0.25288457 0
-0.2908465 0.67894977 0.24336174 0
0.062457532 0.62926167 0.5662908 0
0.059214734 0.63034755 0.56281382 0
0.019907884 0.63522875 0.52767998 0
-0.05750763 0.64771897 0.45584115 0
-0.07133811 0.6482085 0.44329277 0
-0.10333291 0.65324306 0.41413081 0
-0.11507457 0.65481031 0.40327308 0
-0.12214986 0.65697974 0.39719814 0
-0.1487271 0.6597994 0.37322876 0
-0.21517238 0.66905677 0.312646 0
-0.24511486 0.67475361 0.28517535 0
0.044242807 0.63338894 0.54912788 0
0.039493017 0.63458812 0.5448584 0
0.034881927 0.63461018 0.54087925 0
0.028759658 0.63505155 0.53514761 0
0.023757972 0.63634413 0.53098857 0
-0.0036744736 0.64150631 0.50508696 0
-0.016482759 0.64232397 0.49413502 0
-0.024844699 0.64444298 0.48531711 0
-0.03323273 0.64514297 0.47819924 0
-0.062265359 0.64966905 0.45125228 0
-0.072892189 0.65085977 0.44202858 0
-0.10328536 0.65506488 0.41415179 0
-0.10900857 0.65607506 0.40906435 0
-0.11638537 0.65805435 0.40224156 0
-0.13127404 0.65898919 0.38847753 0
-0.14505634 0.66225499 0.37628892 0
-0.17560479 0.66602272 0.34831312 0
-0.19756684 0.66924345 0.32842088 0
-0.2020053 0.67069638 0.32441029 0
-0.22716188 0.67338198 0.3013601 0
-0.23881477 0.6757201 0.29029289 0
-0.25322664 0.67766327 0.27716324 0
-0.27705061 0.68065786 0.25615141 0
-0.29597139 0.68334329 0.2380223 0
0.033726774 0.6372804 0.53979081 0
0.02991499 0.63772303 0.53618115 0
0.030902848 0.63675088 0.53721148 0
0.014516421 0.63928038 0.52234405 0
0.0066799 0.64027345 0.51464355 0
-0.062062081 0.65125424 0.45162791 0
-0.088601246 0.65465158 0.42749798 0
-0.11548688 0.6594618 0.40228969 0
-0.12319658 0.65968305 0.39612263 0
-0.12536901 0.65956223 0.39419118 0
-0.12531576 0.65953934 0.39421874 0
-0.12878525 0.66047287 0.39105743 0
-0.13902162 0.66310698 0.38118312 0
-0.14032003 0.66224152 0.38026223 0
-0.16321 0.66659558 0.35997686 0
-0.17443523 0.66691118 0.34936389 0
-0.19881669 0.67181766 0.3272908 0
-0.21763283 0.67470038 0.31023583 0
-0.24146649 0.67733496 0.28878564 0
-0.25339827 0.67941225 0.27700335 0
-0.2569212 0.6803633 0.27404791 0
-0.27792794 0.68346506 0.25512895 0
0.048416637 0.63725054 0.55303705 0
0.037776135 0.63759053 0.54288059 0
0.019063577 0.64139837 0.52678543 0
0.016961813 0.64129746 0.52466369 0
0.0055008754 0.64279252 0.51321924 0
-0.035056606 0.64863312 0.47626847 0
-0.07048969 0.65462762 0.44384548 0
-0.072917022 0.65453756 0.44193906 0
-0.09724161 0.65746772 0.41904339 0
-0.11465913 0.66053241 0.40325898 0
-0.13099995 0.6640057 0.38883129 0
-0.14032367 0.66415077 0.38055113 0
-0.14394844 0.66496503 0.37725064 0
-0.14500785 0.66585982 0.37618503 0
-0.1460835 0.66500181 0.37515971 0
-0.16862406 0.6695466 0.3543987 0
-0.17662728 0.67050517 0.34727696 0
-0.18273285 0.67053527 0.34228748 0
-0.18602428 0.6710465 0.33908275 0
-0.19061974 0.6712597 0.33492839 0
-0.24734643 0.68035448 0.28258333 0
-0.25097543 0.68157011 0.27942523 0
-0.25687215 0.68193483 0.27399805 0
-0.25790039 0.68278152 0.27268368 0
-0.26135185 0.6818186 0.26953101 0
-0.26502007 0.68346018 0.2664783 0
-0.29177579 0.68629265 0.24186353 0
-0.30127436 0.68894672 0.23262845 0
0.060280062 0.63702738 0.56381911 0
0.050192684 0.63769519 0.55412817 0
0.032751516 0.64079487 0.53909975 0
0.0081184655 0.64482433 0.51545656 0
-0.00046487153 0.64545894 0.50830752 0
-0.070560418 0.65639895 0.44377857 0
-0.13207948 0.66495329 0.38772845 0
-0.13435464 0.66472346 0.38524389 0
-0.14851539 0.66840291 0.37299478 0
-0.26020616 0.68463838 0.27067414 0
-0.27945021 0.687199 0.25263125 0
-0.28213701 0.6870802 0.25075755 0
0.060254715 0.63884032 0.56348526 0
0.058299839 0.63881004 0.56114054 0
0.041988082 0.64181429 0.54708987 0
0.033642597 0.64298344 0.539213 0
-0.012277052 0.64829934 0.49751949 0
-0.032932635 0.65268981 0.47824728 0
-0.035902478 0.65328813 0.47492623 0
-0.04961136 0.65499979 0.4620935 0
-0.070624769 0.65822554 0.44378737 0
-0.1201726 0.66481394 0.39852166 0
-0.13186389 0.6666497 0.38766593 0
-0.13523738 0.66738558 0.38466495 0
-0.15595514 0.67084694 0.36589691 0
-0.15719253 0.66978455 0.36493689 0
-0.17060292 0.67297745 0.35232005 0
-0.18056205 0.67342597 0.34331581 0
-0.18906775 0.67579979 0.335958 0
-0.20309219 0.67780745 0.32292226 0
-0.21082085 0.67784774 0.31563163 0
-0.22356176 0.68073553 0.30436179 0
-0.22721887 0.68041879 0.30084869 0
-0.25192904 0.68430197 0.27817199 0
-0.29260436 0.6901384 0.24103691 0
-0.30827934 0.69401878 0.22528362 0
0.05605229 0.64089274 0.5593487 0
0.043207906 0.6426295 0.54768002 0
0.038606979 0.64297312 0.54425859 0
0.024590693 0.64624226 0.53077513 0
0.018638499 0.64638031 0.52598625 0
0.013131067 0.64640945 0.52017516 0
-0.0027143173 0.64906645 0.50555748 0
-0.0045401677 0.64979702 0.50365257 0
-0.010784544 0.65080237 0.4985899 0
-0.038204849 0.65497851 0.4725312 0
-0.042755693 0.65566969 0.46856281 0
-0.050007939 0.65670061 0.46215424 0
-0.078724928 0.66125238 0.43580836 0
-0.089113519 0.66175604 0.42639688 0
-0.12508354 0.66713691 0.39405969 0
-0.12840633 0.66761839 0.3908717 0
-0.13067186 0.66937125 0.38865232 0
-0.15992498 0.67315662 0.36168101 0
-0.16746125 0.67422658 0.35565069 0
-0.17058299 0.67486054 0.3522872 0
-0.18885079 0.67760634 0.33586019 0
-0.20302549 0.67955261 0.32298613 0
-0.22228813 0.68180543 0.30471829 0
-0.26929486 0.68957663 0.26271471 0
-0.27436066 0.68959254 0.25798282 0
-0.28152677 0.69091797 0.25047469 0
-0.28654996 0.69216472 0.24564053 0
-0.29047862 0.69238627 0.24280995 0
-0.2982122 0.69388729 0.23583414 0
-0.29939497 0.69439209 0.23449624 0
-0.30191672 0.69394982 0.2321292 0
0.036831297 0.64505851 0.54210395 0
0.0039224699 0.65078306 0.51181841 0
-0.020418815 0.65388292 0.48960295 0
-0.03384399 0.65508664 0.47715539 0
-0.058347538 0.65944046 0.4544794 0
-0.06950976 0.66110992 0.44461322 0
-0.079878986 0.66369152 0.43475375 0
-0.084528662 0.66363198 0.43052226 0
-0.090218186 0.66426647 0.42530689 0
-0.09475401 0.66453534 0.42082167 0
-0.09597154 0.66543812 0.41979429 0
-0.13279583 0.67092246 0.3865509 0
-0.14344236 0.67145884 0.37698618 0
-0.14901213 0.67247915 0.37223929 0
-0.16368662 0.67532861 0.35865861 0
-0.16627294 0.67521626 0.35657206 0
-0.17163929 0.67583263 0.35120046 0
-0.17855784 0.67736715 0.34499738 0
-0.1995931 0.68052447 0.32613787 0
-0.20300388 0.68135357 0.3229517 0
-0.20199162 0.68043751 0.32405421 0
-0.22184828 0.68366414 0.30450177 0
-0.24578509 0.68821263 0.28352296 0
-0.26893374 0.69123346 0.26191068 0
-0.28900683 0.69343334 0.24356754 0
-0.28917453 0.69374263 0.24368478 0
-0.29658303 0.69488895 0.23719127 0
-0.30194545 0.69576108 0.23204665 0
0.063770257 0.64350587 0.56648189 0
0.047819182 0.6451515 0.55172467 0
0.031682581 0.64858198 0.53718829 0
0.010792255 0.65101522 0.51843703 0
0.0041955486 0.65255803 0.5118618 0
-0.012782432 0.65462041 0.49638227 0
-0.031038882 0.65725982 0.47918695 0
-0.032167986 0.65817571 0.47814336 0
-0.043797716 0.66016275 0.46741152 0
-0.049900375 0.66001451 0.46183571 0
-0.075153172 0.66463423 0.43906033 0
-0.082096189 0.66532093 0.43240353 0
-0.10651846 0.66797745 0.41044629 0
-0.11751752 0.67019451 0.40048388 0
-0.12391911 0.67171705 0.39528856 0
-0.12603724 0.67162788 0.39254725 0
-0.18575343 0.68057328 0.33886117 0
-0.19139245 0.68105662 0.33358982 0
-0.19938853 0.68233901 0.32604849 0
-0.21511251 0.68450785 0.31119898 0
-0.21794698 0.68547273 0.30940375 0
-0.23622814 0.68835342 0.29153588 0
-0.24486342 0.68913788 0.28452888 0
-0.25006977 0.69080597 0.27889019 0
-0.27830562 0.69530249 0.2534419 0
-0.28905028 0.69522125 0.24348214 0
-0.29034454 0.69596386 0.24247071 0
-0.30144399 0.69886774 0.23255095 0
-0.30255011 0.69765061 0.23153295 0
0.047777534 0.64692885 0.55158359 0
0.032832958 0.64994484 0.5383538 0
0.028039947 0.65054578 0.53361958 0
0.028996833 0.6496228 0.53487557 0
0.025243022 0.65045059 0.53100854 0
0.015165024 0.65139145 0.52124703 0
-0.094761498 0.66815245 0.42083862 0
-0.10311682 0.67087054 0.41337606 0
-0.11755231 0.67196268 0.40046841 0
-0.13390434 0.67539477 0.38545993 0
-0.16704795 0.67974985 0.35520279 0
-0.16854791 0.68054748 0.35413846 0
-0.21675342 0.68677348 0.3100771 0
-0.22832829 0.68832314 0.29936284 0
-0.23617521 0.69024467 0.29150188 0
-0.26127836 0.6929391 0.26894885 0
-0.26342413 0.69477785 0.26717374 0
-0.26846054 0.69560474 0.26238731 0
-0.27570471 0.69530064 0.2554532 0
0.053611472 0.64840865 0.55657357 0
0.040435873 0.6501044 0.54453593 0
-0.00075196475 0.65615857 0.50645256 0
-0.024907213 0.66068935 0.48515913 0
-0.030154329 0.66121048 0.47996071 0
-0.037956528 0.66253465 0.47211567 0
-0.070669137 0.66613728 0.44311693 0
-0.088917315 0.66898561 0.42605299 0
-0.12256277 0.67463201 0.39611101 0
-0.13261712 0.67627013 0.3864122 0
-0.13722265 0.67637575 0.38231367 0
-0.15453705 0.67892039 0.36667717 0
-0.16965167 0.68108565 0.35313576 0
-0.17403588 0.68295592 0.3489098 0
-0.19746307 0.6856454 0.32752648 0
-0.20195556 0.68579811 0.32384303 0
-0.22126555 0.69027436 0.30581135 0
-0.22660902 0.69120967 0.30025709 0
-0.26708424 0.6961453 0.26364174 0
-0.01612132 0.66057765 0.4924913 0
-0.018884711 0.66033441 0.49048236 0
-0.034464341 0.66324013 0.47552055 0
-0.052334342 0.66596991 0.45961064 0
-0.066056415 0.66789579 0.44712561 0
-0.075396121 0.66961282 0.43830973 0
-0.088014074 0.67154574 0.42716703 0
-0.094448693 0.67252737 0.42089504 0
-0.12589216 0.67652613 0.39309704 0
-0.13235998 0.67807657 0.38633791 0
-0.15089715 0.68045068 0.36940661 0
-0.15683384 0.6823982 0.36443767 0
-0.18392792 0.68568587 0.33949342 0
-0.19586265 0.6882838 0.32844269 0
-0.23747432 0.69356072 0.29029256 0
-0.24670359 0.69557494 0.28179833 0
-0.26106435 0.69825572 0.26883733 0
-0.27518705 0.70042235 0.25520393 0
-0.27892798 0.69978893 0.2515569 0
-0.29266444 0.70300502 0.23981176 0
0.05298876 0.65228218 0.55565727 0
0.041711167 0.654284 0.54520875 0
0.031024747 0.65568453 0.53568274 0
0.015438296 0.65675277 0.52179492 0
-0.0017898344 0.66067457 0.50564104 0
-0.04025232 0.6662488 0.47012264 0
-0.044848993 0.66673261 0.46564507 0
-0.046107017 0.66758734 0.46466172 0
-0.048573978 0.6663835 0.46282127 0
-0.051006444 0.66701335 0.46051744 0
-0.053467743 0.66870189 0.45850718 0
-0.05460535 0.66781121 0.45750663 0
-0.064927019 0.66877675 0.44813719 0
-0.069870211 0.66984171 0.44336116 0
-0.071739465 0.67139995 0.44147286 0
-0.081163995 0.67177457 0.43323442 0
-0.087060064 0.67253333 0.42711318 0
-0.10166524 0.6756137 0.41439512 0
-0.10426244 0.67557216 0.41240525 0
-0.11486982 0.67699444 0.40264198 0
-0.12236461 0.6787923 0.39549389 0
-0.12934653 0.67943853 0.38927829 0
-0.13864404 0.68168503 0.38056567 0
-0.14490488 0.68226868 0.37443158 0
-0.1846862 0.68756008 0.33882955 0
-0.18313384 0.68841821 0.34032622 0
-0.20901728 0.69110644 0.31703094 0
-0.21842128 0.69384205 0.30762163 0
-0.23833871 0.6960367 0.28974661 0
-0.23964778 0.69704378 0.28844175 0
-0.29157427 0.70414376 0.24109875 0
0.058604777 0.65261275 0.56122053 0
0.057592727 0.65205479 0.55969828 0
0.046633102 0.65407884 0.55003822 0
0.029798158 0.65629452 0.53460234 0
0.018044189 0.65845227 0.52368802 0
0.010828264 0.65921193 0.51753789 0
-0.018284839 0.6640889 0.4901945 0
-0.029713705 0.66531092 0.47946298 0
-0.043909073 0.66778004 0.4666481 0
-0.047289871 0.66830027 0.46352899 0
-0.053446591 0.67048538 0.45845923 0
-0.053278521 0.67047817 0.45826918 0
-0.060204677 0.67037153 0.45219654 0
-0.061217416 0.67128611 0.45111105 0
-0.065845057 0.67147553 0.4470093 0
-0.080979459 0.67355835 0.43322432 0
-0.08548899 0.67523849 0.4288843 0
-0.095849559 0.67660838 0.41946068 0
-0.12548828 0.67998397 0.39276689 0
-0.1363757 0.6816538 0.38267818 0
-0.1472562 0.6836623 0.3725709 0
-0.16229939 0.68699741 0.35909021 0
-0.17188764 0.68685454 0.35074389 0
-0.18075916 0.68987793 0.34245732 0
-0.2088623 0.69292301 0.31698579 0
-0.20770356 0.6938014 0.31817555 0
-0.22982359 0.69670922 0.29710257 0
-0.23402798 0.69802409 0.2939212 0
-0.25006744 0.69895846 0.27871093 0
-0.25845012 0.70207572 0.27013063 0
0.061201014 0.65454435 0.56290841 0
0.057812437 0.6553008 0.56004041 0
0.029772587 0.65805048 0.53444147 0
-0.00044919178 0.66347331 0.50677067 0
-0.035574481 0.66970986 0.47420937 0
-0.037820954 0.66960669 0.47207758 0
-0.078538314 0.67526871 0.4352183 0
-0.079667613 0.67622536 0.4342646 0
-0.087752648 0.67689961 0.42677778 0
-0.11698874 0.68070596 0.40089461 0
-0.12425841 0.68313205 0.3930065 0
-0.16575629 0.68951261 0.35603064 0
-0.17397299 0.69060147 0.34851912 0
-0.18069056 0.69166648 0.3423999 0
-0.18380436 0.69143474 0.34011784 0
-0.19280535 0.69288725 0.33155093 0
-0.25121266 0.7017917 0.27744693 0
-0.25210992 0.70269054 0.27637899 0
-0.27711314 0.70602387 0.25334248 0
-0.3135114 0.7103439 0.22691505 0
0.035285674 0.65882224 0.53965491 0
0.011160769 0.6624521 0.5177561 0
0.0071997344 0.66408974 0.51313746 0
-0.0037628971 0.66597885 0.50344622 0
-0.0066812709 0.66595167 0.50018024 0
-0.012807474 0.66635442 0.49555355 0
-0.029638451 0.67037427 0.47951403 0
-0.038993411 0.67050803 0.4710238 0
-0.048268698 0.67275935 0.46236688 0
-0.057708696 0.67382783 0.45411289 0
-0.093801782 0.67914099 0.42100447 0
-0.10316209 0.68077099 0.4124617 0
-0.10895456 0.68254167 0.40736181 0
-0.13795556 0.68597597 0.38125351 0
-0.14258324 0.68781525 0.37667447 0
-0.14610472 0.68850017 0.37334138 0
-0.17631526 0.69210821 0.3463192 0
-0.19149834 0.69390988 0.33250362 0
-0.20113838 0.69614792 0.3230353 0
-0.20369163 0.69700766 0.32089472 0
-0.22425705 0.70005721 0.30227122 0
-0.22639996 0.69991732 0.30016014 0
-0.24056995 0.70168304 0.286823 0
-0.29055607 0.70958191 0.24193516 0
0.050484009 0.6586585 0.55337048 0
0.047265239 0.65956956 0.55013567 0
0.044254564 0.66003042 0.54749894 0
0.027446069 0.66348743 0.53238738 0
0.010798171 0.66526878 0.51608187 0
-0.0024794489 0.66677797 0.50453168 0
-0.0036903396 0.6677466 0.50346255 0
-0.0049393848 0.66681093 0.50252336 0
-0.014902994 0.66841 0.49331647 0
-0.023572892 0.67088044 0.48491892 0
-0.032999665 0.67143118 0.47613576 0
-0.043331489 0.67408395 0.46671498 0
-0.065649897 0.67658687 0.44686097 0
-0.083751775 0.67946029 0.42989665 0
-0.089523353 0.68096107 0.42435381 0
-0.097492151 0.68264252 0.41785502 0
-0.10503315 0.68388331 0.41072443 0
-0.10722545 0.68381834 0.40855435 0
-0.11895999 0.68455589 0.39816236 0
-0.13412744 0.68820101 0.38433087 0
-0.1368064 0.68876433 0.38176498 0
-0.14377135 0.68866479 0.37563568 0
-0.14508949 0.68954188 0.37433523 0
-0.15471953 0.69009596 0.36519742 0
-0.17608064 0.69410336 0.3461315 0
-0.18006289 0.69400191 0.34239548 0
-0.18584847 0.69520003 0.33765578 0
-0.19140193 0.69602227 0.33215046 0
-0.19603321 0.6979326 0.3277134 0
-0.20965222 0.69926298 0.31570977 0
-0.21576685 0.70053983 0.30998111 0
-0.22262165 0.70090139 0.3032037 0
-0.22888464 0.70164931 0.29768938 0
0.062132969 0.65874571 0.56359339 0
0.049766354 0.66134077 0.5523473 0
0.037147865 0.66264796 0.54156506 0
0.021420889 0.66482049 0.52688456 0
-0.01700877 0.67212445 0.49121603 0
-0.030466856 0.67318761 0.478383 0
-0.034120195 0.67428815 0.47506121 0
-0.068005867 0.67852497 0.44480321 0
-0.10163622 0.68505239 0.41378912 0
-0.10727446 0.68560505 0.40849477 0
-0.12081845 0.68773812 0.39675587 0
-0.12720975 0.68861973 0.39064845 0
-0.13386995 0.69000483 0.38430473 0
-0.16467285 0.69459987 0.35682851 0
-0.1903418 0.69864368 0.3334094 0
-0.24084917 0.70628458 0.28570959 0
-0.24870375 0.70678777 0.27932912 0
-0.29528555 0.71316457 0.24342237 0
0.026036173 0.66622072 0.53122699 0
0.01607994 0.6680913 0.52124065 0
-0.00022634864 0.67070085 0.50614256 0
-0.014664564 0.67195284 0.49337032 0
-0.020039771 0.67354691 0.48797807 0
-0.028245211 0.67516845 0.48058063 0
-0.032646261 0.67506522 0.47609901 0
-0.056284349 0.67961073 0.4546003 0
-0.066823751 0.68082285 0.44554025 0
-0.1100391 0.68749714 0.40612656 0
-0.11656757 0.68931103 0.39977109 0
-0.11626632 0.68791133 0.40051705 0
-0.127105 0.69036376 0.39093894 0
-0.14670247 0.69411343 0.37282705 0
-0.16200435 0.69624186 0.35878754 0
-0.19820565 0.70081592 0.32608518 0
-0.21947652 0.70508146 0.30658656 0
-0.22188908 0.70471752 0.3045105 0
-0.23486593 0.70625919 0.29266459 0
-0.24004227 0.7077778 0.28683212 0
0.049736701 0.66536194 0.55199134 0
0.017466515 0.6687035 0.52278465 0
0.011895336 0.67085159 0.51722521 0
0.0044973716 0.67220485 0.50997329 0
-0.0028710254 0.67232472 0.50347 0
-0.017908283 0.6748389 0.49003935 0
-0.019074805 0.6758123 0.48881546 0
-0.029326426 0.67613822 0.4795171 0
-0.043846365 0.67851675 0.46573931 0
-0.059638523 0.68169188 0.45179227 0
-0.11777221 0.6899392 0.39865601 0
-0.12418907 0.69065881 0.39351141 0
-0.12898493 0.69195682 0.38897315 0
-0.13247681 0.69271916 0.3855778 0
-0.13879293 0.69460291 0.3797473 0
-0.14803189 0.69512171 0.37184373 0
-0.17876345 0.7005353 0.34360248 0
-0.18426262 0.70178944 0.33807653 0
-0.20173305 0.70262849 0.3228603 0
-0.2087546 0.70486891 0.31697553 0
-0.20948982 0.70510113 0.31654528 0
-0.21354774 0.70547199 0.31203699 0
0.042173319 0.66666365 0.54574919 0
0.040713809 0.66739488 0.54462814 0
0.0021534339 0.67392695 0.50788218 0
-0.014196865 0.67567074 0.49291971 0
-0.036281139 0.67931187 0.47282776 0
-0.06676054 0.68497509 0.4453671 0
-0.084469482 0.68651557 0.42877465 0
-0.096138939 0.6898151 0.41846281 0
-0.11810981 0.69165832 0.39861321 0
-0.12296635 0.69322115 0.39448652 0
-0.12751302 0.69458878 0.38987499 0
-0.12893142 0.69357997 0.3890411 0
-0.15152068 0.69730455 0.36823308 0
-0.15936697 0.69971311 0.36098072 0
-0.23167616 0.70981127 0.2946108 0
0.072575741 0.66616762 0.56621617 0
0.065309815 0.66520327 0.5659914 0
0.048187636 0.66747481 0.550789 0
0.026211716 0.67203224 0.53118193 0
0.019622989 0.67225009 0.52486151 0
0.01458326 0.67385989 0.51982605 0
0.0089587346 0.67404592 0.51382905 0
0.00081131607 0.67647946 0.50677949 0
-0.018540468 0.67819327 0.4888185 0
-0.044766188 0.68214357 0.46463352 0
-0.051868044 0.68332118 0.45892984 0
-0.050444484 0.68441051 0.45953631 0
-0.063241139 0.68559051 0.44859129 0
-0.09967038 0.69070882 0.41511729 0
-0.14112806 0.69767565 0.37772346 0
-0.18752325 0.70523149 0.3355957 0
-0.21029714 0.70799571 0.31493711 0
-0.20915645 0.70898438 0.31576177 0
-0.24166992 0.71284664 0.28457624 0
0.05697272 0.66829991 0.55816412 0
0.030156419 0.67231667 0.5338282 0
0.016988754 0.67548555 0.52197647 0
0.012874328 0.67506725 0.51715165 0
0.0044698343 0.67773849 0.50960767 0
-0.068389595 0.6887784 0.44359231 0
-0.11102052 0.6957047 0.40465051 0
-0.14313805 0.70088857 0.37555593 0
-0.16886264 0.70348775 0.3522588 0
-0.16793233 0.70443815 0.35346854 0
-0.20407745 0.70928401 0.3203308 0
0.049921826 0.6717599 0.55171031 0
0.044838585 0.67205381 0.54738611 0
0.03546647 0.6734395 0.53840458 0
0.018374316 0.6764462 0.52270842 0
-0.002901528 0.67941332 0.50366277 0
-0.0037428737 0.68043745 0.502487 0
-0.0048112459 0.67945939 0.50149351 0
-0.025694981 0.68332952 0.48103705 0
-0.028652988 0.68464708 0.47918811 0
-0.060343564 0.68970424 0.45075309 0
-0.074875578 0.69185585 0.43753201 0
-0.11429456 0.69806892 0.40154776 0
-0.14790756 0.7025094 0.37127447 0
-0.15043652 0.70383602 0.36901811 0
-0.1516594 0.70284039 0.36797154 0
-0.18294443 0.70779353 0.3397541 0
-0.18437997 0.70870888 0.3379418 0
-0.19226265 0.70869923 0.33117169 0
-0.19324759 0.71032172 0.33089155 0
0.053207003 0.67267239 0.55512381 0
0.03159418 0.67560905 0.53460455 0
0.0095688924 0.68033242 0.5146935 0
-0.0038060844 0.68222487 0.50241894 0
-0.0060816482 0.68209326 0.50048614 0
-0.022615336 0.68548286 0.48427212 0
-0.024898876 0.68537354 0.48231938 0
-0.045084886 0.68870991 0.46400633 0
-0.054220874 0.69004047 0.45622292 0
-0.073978961 0.69286728 0.43854553 0
-0.1162806 0.69887322 0.39976525 0
-0.1356096 0.70198959 0.38210359 0
-0.23299295 0.71608877 0.30316323 0
0.026391737 0.67906404 0.52972102 0
-0.010895904 0.68494725 0.49514124 0
-0.017183401 0.6864506 0.48950607 0
-0.044991888 0.6905092 0.46389547 0
-0.075890303 0.69454545 0.4363189 0
-0.10829496 0.70056856 0.40688449 0
-0.1189745 0.70247656 0.39678225 0
-0.15177521 0.70641416 0.36776671 0
-0.17474478 0.70990038 0.34690106 0
0.057682127 0.67633343 0.5589143 0
0.030567296 0.68065041 0.53341985 0
0.022774085 0.68155235 0.52608699 0
0.0052236989 0.68456078 0.51042259 0
-0.0068599507 0.68569374 0.49879044 0
-0.014701523 0.68637264 0.49150634 0
-0.034106098 0.6909399 0.47355869 0
-0.045978386 0.69140333 0.46296158 0
-0.074734107 0.697335 0.43731809 0
-0.11773161 0.70288366 0.39822 0
-0.11640076 0.70244205 0.39928806 0
-0.13858548 0.70625281 0.37961608 0
-0.16899213 0.71126974 0.35175827 0
0.05116953 0.67805755 0.55259693 0
0.042059533 0.68048418 0.54424721 0
0.023866512 0.68229735 0.5272103 0
0.0051572621 0.68631047 0.51002312 0
-0.012110498 0.6877768 0.4944545 0
-0.020663604 0.69051486 0.4862546 0
-0.074630938 0.69913763 0.43711627 0
-0.073498011 0.69828844 0.43818116 0
-0.080916524 0.70014328 0.43200517 0
-0.099975459 0.70182461 0.41402334 0
-0.11402635 0.70399559 0.40154752 0
-0.12097234 0.70556319 0.39463881 0
-0.15102124 0.7112909 0.36756891 0
-0.1935707 0.71592724 0.33513811 0
0.012727253 0.68576568 0.51720762 0
0.0019369796 0.68733764 0.50628138 0
-0.022180259 0.69174451 0.48439932 0
-0.024616323 0.69148731 0.48221517 0
-0.023291647 0.69233078 0.48313063 0
-0.062708147 0.69870806 0.44834295 0
-0.064736173 0.69900072 0.44618535 0
-0.071913816 0.69941634 0.43931478 0
-0.075275719 0.70073217 0.43623737 0
-0.086293966 0.70275706 0.42593756 0
-0.10115934 0.70533335 0.41263732 0
-0.10422509 0.70422912 0.41082478 0
-0.10658429 0.70566398 0.40835503 0
-0.10883573 0.7057907 0.40594804 0
-0.1183046 0.70686406 0.39800417 0
-0.13803148 0.71001762 0.37938538 0
0.055994585 0.68152356 0.5565747 0
0.047982521 0.68217164 0.54882598 0
0.031885304 0.68551755 0.53392106 0
0.027429588 0.68648505 0.5302794 0
0.011750691 0.68845087 0.51607406 0
0.0059753731 0.68900979 0.51079172 0
0.004592225 0.68977988 0.50837493 0
-0.016719978 0.69250649 0.48943093 0
-0.028101154 0.69531709 0.47885126 0
-0.068240479 0.70171487 0.44302824 0
-0.079598464 0.70322937 0.43242887 0
-0.11518434 0.70868909 0.40030429 0
-0.13077915 0.71067429 0.38592017 0
0.060438029 0.68173742 0.56086642 0
0.031377904 0.6872617 0.53347111 0
-0.025521383 0.69631237 0.48116726 0
-0.028153472 0.69556326 0.4793478 0
-0.03648559 0.69799304 0.47095239 0
-0.037805516 0.69862604 0.46999627 0
-0.055959366 0.70148695 0.45419168 0
-0.054785326 0.70087224 0.4548848 0
-0.057836354 0.70093203 0.45174772 0
-0.059764653 0.70104873 0.44994709 0
-0.069145821 0.70259893 0.4418323 0
-0.078783453 0.70367944 0.43314949 0
-0.084063664 0.70458019 0.42807901 0
-0.13654923 0.71349853 0.3810198 0
-0.14545754 0.71559346 0.37322333 0
0.056981161 0.6846801 0.55787861 0
0.041831441 0.68768007 0.54340273 0
0.012928687 0.69109893 0.51639849 0
0.0089726001 0.69276321 0.51214463 0
-0.0018561743 0.69477278 0.50284702 0
-0.044075057 0.70181727 0.46339878 0
-0.072810337 0.70627189 0.43807715 0
-0.080538958 0.70661128 0.43140352 0
-0.09139701 0.70750076 0.42161477 0
-0.12738352 0.71381205 0.3889077 0
0.048419096 0.68842131 0.54933196 0
0.045968063 0.68824023 0.54777271 0
0.014436275 0.69362593 0.51777709 0
0.01363159 0.69263428 0.51649296 0
-0.0063207671 0.69671667 0.49835384 0
-0.027840063 0.70089346 0.47796303 0
-0.059813786 0.70563859 0.44964409 0
-0.062366869 0.70573866 0.44731829 0
-0.075007766 0.70800859 0.43614399 0
-0.074958041 0.70799613 0.43618411 0
-0.085526899 0.70863837 0.42649192 0
-0.084223941 0.70963937 0.42753115 0
-0.13455227 0.71632653 0.38299167 0
-0.13402915 0.71771884 0.38415512 0
-0.14532256 0.71744525 0.376607 0
0.056063272 0.68738365 0.5563702 0
0.022001967 0.69417244 0.52567059 0
0.020378508 0.69418007 0.52317524 0
-0.0072815344 0.69785738 0.49725455 0
-0.016226903 0.70064253 0.48881009 0
-0.025785543 0.70203155 0.48022121 0
-0.034520723 0.70231891 0.47218201 0
-0.051640838 0.70616686 0.45700905 0
-0.05268231 0.70573187 0.45596167 0
-0.071465939 0.70940626 0.43881273 0
-0.08090432 0.71110898 0.43038422 0
0.0250246 0.69437218 0.52759689 0
0.017687276 0.69644433 0.52075678 0
0.014540464 0.69703871 0.5171423 0
-0.012639597 0.70100302 0.49243554 0
-0.018599864 0.70239782 0.48693722 0
-0.034347713 0.70409656 0.4721736 0
-0.059466518 0.70950639 0.44949219 0
-0.06342724 0.71022123 0.44642895 0
-0.063463472 0.71013123 0.44644126 0
-0.074583687 0.7116189 0.43585911 0
0.031731062 0.69489861 0.53364253 0
0.016627021 0.69726396 0.51955318 0
-0.0066980943 0.7027244 0.49690187 0
-0.01524993 0.70374674 0.48993698 0
-0.031389281 0.70523763 0.47462091 0
-0.03925842 0.70780259 0.46759245 0
-0.051619187 0.71010458 0.456276 0
-0.052472692 0.70876551 0.45561388 0
-0.064390063 0.71123701 0.44526923 0
0.061631672 0.69227499 0.56087649 0
0.052543171 0.69348115 0.55266201 0
0.034358121 0.69724965 0.53567368 0
0.0035845563 0.70272052 0.5059818 0
-0.025362205 0.70672041 0.48079699 0
-0.035687473 0.70875907 0.47018096 0
-0.045230068 0.7096594 0.46198621 0
-0.046409436 0.71026117 0.46075171 0
-0.061886366 0.71288133 0.44728935 0
-0.077663392 0.71551436 0.43269384 0
0.34383023 0.71885216 0.32003438 0
0.061845742 0.6933943 0.5610919 0
0.050944231 0.69596171 0.55152631 0
0.047505312 0.69661629 0.54836214 0
0.037406005 0.69837463 0.53912771 0
-0.01111754 0.70561671 0.49307951 0
-0.013814896 0.70757401 0.4910441 0
-0.022373367 0.708552 0.4829751 0
-0.034770183 0.70940846 0.47150603 0
-0.038017057 0.71141309 0.46851581 0
0.062811725 0.69625443 0.56153774 0
0.049654894 0.69847059 0.55032468 0
0.050891407 0.69775695 0.55134618 0
0.04515671 0.69929063 0.54592794 0
0.042241409 0.69839936 0.54331571 0
0.020518154 0.70236486 0.52239329 0
-0.011447296 0.70731884 0.49358305 0
-0.05059173 0.71474779 0.45921895 0
-0.057155073 0.7152167 0.45152375 0
0.060550354 0.69780469 0.55957055 0
0.036609747 0.70106196 0.53771514 0
0.03157413 0.70212567 0.53316021 0
0.016772486 0.70603979 0.51916873 0
-0.0097559094 0.71041417 0.49508888 0
-0.018509272 0.71163988 0.48643416 0
-0.022004515 0.71217322 0.48290518 0
0.057738505 0.69935822 0.55750978 0
0.048357226 0.70096225 0.54911619 0
0.044285931 0.70200861 0.54469299 0
0.02991017 0.70409745 0.53085971 0
0.01194407 0.70768881 0.51443189 0
-0.037787795 0.71683639 0.46838772 0
-0.06040857 0.71922779 0.44818079 0
-0.10281632 0.7238254 0.42551142 0
0.056044616 0.7028867 0.55428928 0
0.046439543 0.7039873 0.54618257 0
0.023843877 0.70797962 0.52563381 0
0.010539375 0.70956391 0.51286113 0
0.0052055269 0.71065062 0.50789851 0
0.0012554824 0.7113052 0.50397253 0
-0.0011809878 0.71100223 0.50193381 0
-0.0042445064 0.71168774 0.49973917 0
0.065566726 0.70255208 0.56363404 0
0.05094929 0.70466369 0.55107987 0
0.027747832 0.70821738 0.52950132 0
-0.042544626 0.72050798 0.46881625 0
0.029999241 0.71010733 0.53152239 0
-0.0015381649 0.71546996 0.50129414 0
-0.02577851 0.71896195 0.47819588 0
-0.028124698 0.72076148 0.47686926 0
-0.042193256 0.72042871 0.4705348 0
0.043010786 0.7095449 0.54246324 0
0.022450179 0.71360987 0.52360022 0
0.012306608 0.71509767 0.51463133 0
0.0078021213 0.71641243 0.5100469 0
0.0022882894 0.7162984 0.50512367 0
0.0002187863 0.71663398 0.50235277 0
-0.010458104 0.71861845 0.49257076 0
-0.026846997 0.72165686 0.47758731 0
0.30596849 0.71616042 0.44925937 0
0.042281039 0.71103233 0.54208583 0
0.02734904 0.71480173 0.52810192 0
0.022727437 0.71537668 0.52366889 0
0.02084069 0.71446067 0.52276975 0
0.016179152 0.71536946 0.51857579 0
-0.0011064671 0.719109 0.5011698 0
-0.0024989434 0.71975702 0.49999148 0
0.30583808 0.71749741 0.45111895 0
0.044008575 0.71277905 0.54341084 0
0.036006503 0.71389353 0.53590518 0
0.023403153 0.71640354 0.52437389 0
0.022231154 0.71749312 0.52326065 0
0.0068604276 0.72006202 0.50850016 0
0.059436552 0.71213841 0.55694115 0
0.01263044 0.72031593 0.5142743 0
-0.0062240586 0.72373503 0.49631441 0
0.061349757 0.71403825 0.55952466 0
0.022515766 0.72026259 0.52346969 0
0.063370168 0.71686035 0.56210816 0
0.05552467 0.71839237 0.55354995 0
0.038464881 0.72066432 0.53783113 0
0.063949525 0.71898627 0.56223929 0
0.060362987 0.7185173 0.55832267 0
-0.0075844154 0.72837377 0.51445079 0
0.039464474 0.72479534 0.53773177 0
0.030939698 0.72600955 0.53499073 0
0.02919808 0.72572172 0.53388321 0
0.055548854 0.72737473 0.55293685 0
0.049714573 -0.4056628 0.31389406 0
0.049945764 -0.4041377 0.31217629 0
-0.0234714 -0.39943257 0.32838681 0
-0.039776504 -0.39790633 0.31798002 0
-0.040423639 -0.38349515 0.33002925 0
-0.051922902 -0.38427299 0.31897378 0
-0.0016638115 -0.37727037 0.34737232 0
-0.05248861 -0.38100809 0.32059583 0
-0.052101642 -0.37952492 0.32140747 0
-0.056890208 -0.37880814 0.31464598 0
-0.054124236 -0.37647054 0.31919599 0
-0.049979649 -0.36951733 0.32431778 0
-0.055487841 -0.37064636 0.31601965 0
-0.055105008 -0.36626241 0.31465977 0
-0.047795318 -0.36268732 0.32402501 0
-0.033042934 -0.35569683 0.33476841 0
-0.03259369 -0.34828812 0.33207193 0
-0.055986188 -0.34988278 0.31583831 0
-0.049965777 -0.33694136 0.31850651 0
0.014941081 -0.3306908 0.35185599 0
-0.047505572 -0.33498049 0.32003242 0
-0.049618922 -0.3284269 0.31444287 0
-0.054823287 -0.32598937 0.2966983 0
-0.055685051 -0.32714877 0.29550812 0
-0.060983106 -0.32186079 0.29181537 0
-0.047562115 -0.31590399 0.31860536 0
-0.056447316 -0.31851602 0.29671431 0
-0.046270646 -0.31499749 0.31983614 0
-0.057933945 -0.31640285 0.29660231 0
0.011657201 -0.311104 0.33250195 0
0.013371207 -0.31032383 0.33101955 0
-0.063406721 -0.31387156 0.29153275 0
0.018603817 -0.30447337 0.32756081 0
-0.042682622 -0.30473638 0.31946263 0
-0.050179876 -0.30629548 0.31233567 0
-0.048512302 -0.30646995 0.31544107 0
0.025168158 -0.30285662 0.33113831 0
0.029168248 -0.30090886 0.33201453 0
-0.047515862 -0.30072081 0.31364495 0
-0.053937659 -0.30116677 0.29741934 0
-0.046098795 -0.29662389 0.31197172 0
-0.046856668 -0.29448172 0.30956128 0
0.039516613 -0.29217207 0.32961056 0
-0.047375761 -0.29238015 0.3078953 0
-0.046682529 -0.29167598 0.30909169 0
-0.04679352 -0.29053181 0.30777228 0
-0.055766109 -0.2905969 0.29536819 0
0.031689659 -0.28371799 0.33068949 0
-0.053714432 -0.2877419 0.29633224 0
0.030430846 -0.28037935 0.33305165 0
-0.046373248 -0.28281018 0.30483535 0
0.014091998 -0.27855152 0.32834789 0
-0.045748994 -0.28106725 0.30482799 0
-0.046075221 -0.27977407 0.30338648 0
-0.042584248 -0.2772404 0.30622068 0
-0.048090689 -0.27785438 0.29925111 0
0.037655711 -0.27187625 0.35074082 0
-0.0043150336 -0.27514452 0.31848168 0
-0.028892137 -0.27230966 0.31096697 0
-0.047515646 -0.27515459 0.2980721 0
-0.030125292 -0.27191615 0.31004289 0
-0.046218406 -0.2683408 0.29593435 0
-0.040954091 -0.26757658 0.29907104 0
-0.013120368 -0.24124528 0.42424452 0
-0.035849251 -0.2407098 0.41114202 0
-0.036223792 -0.23802175 0.41344929 0
-0.02707994 -0.23170209 0.42768309 0
-0.029414704 -0.23291457 0.42585558 0
-0.032774925 -0.23327301 0.42125514 0
0.0009656474 -0.22803417 0.43681806 0
-0.039336864 -0.22951452 0.41705233 0
-0.019987121 -0.22121407 0.43897542 0
-0.033922695 -0.21656716 0.43002468 0
-0.035521373 -0.21562836 0.42861137 0
-0.025969192 -0.21417892 0.43826592 0
-0.020459644 -0.21120718 0.44406211 0
-0.029698804 -0.21178308 0.43690196 0
-0.030267257 -0.21028623 0.43625882 0
-0.033425696 -0.21039993 0.43238214 0
-0.022209294 -0.20683762 0.44498354 0
-0.032745644 -0.20923379 0.4336758 0
-0.038639344 -0.20820816 0.42566487 0
-0.031429298 -0.20387539 0.43705076 0
-0.029134477 -0.20152661 0.44093204 0
-0.020841122 -0.20076726 0.44857287 0
-0.025345225 -0.20071818 0.44443059 0
-0.020543098 -0.19717047 0.45059338 0
-0.028643407 -0.1982348 0.44232956 0
-0.030959401 -0.19929942 0.43919107 0
-0.025248952 -0.19610086 0.44646737 0
-0.0070545562 -0.19057846 0.46081001 0
-0.023215115 -0.19167659 0.45043138 0
-0.023518175 -0.1913804 0.45050716 0
-0.027778685 -0.18866748 0.44557545 0
-0.024198364 -0.18802413 0.45045775 0
-0.026390024 -0.18660724 0.44784936 0
-0.025418058 -0.18541121 0.44906741 0
-0.028142713 -0.1850903 0.4455449 0
-0.031335261 -0.1866039 0.44084775 0
-0.02927459 -0.18070863 0.44413239 0
-0.023256138 -0.17410094 0.45268917 0
-0.01330287 -0.17168106 0.46317071 0
-0.019228943 -0.16844688 0.45836803 0
-0.020357013 -0.16416435 0.45743001 0
-0.023676872 -0.16353638 0.45226976 0
-0.019581154 -0.16147196 0.45858172 0
-0.02127672 -0.16148913 0.45607948 0
-0.02358897 -0.16170377 0.45220771 0
-0.013396822 -0.15980244 0.46539056 0
-0.020328581 -0.16062617 0.45730639 0
-0.019604668 -0.15811145 0.45790282 0
-0.022966892 -0.15801048 0.45276237 0
-0.017678857 -0.15620551 0.46058759 0
-0.020380173 -0.15539575 0.45660231 0
-0.013542317 -0.15263879 0.46567819 0
-0.016874246 -0.15336779 0.46163908 0
-0.033041827 -0.15959415 0.37115982 0
0.018329464 -0.15001823 0.48155314 0
-0.032374054 -0.15677354 0.3724471 0
-0.01380156 -0.14925605 0.46550986 0
-0.015138369 -0.14833471 0.46439365 0
-0.022474296 -0.14894095 0.45255488 0
-0.035520017 -0.15311195 0.36817709 0
-0.011281155 -0.14310724 0.46811673 0
-0.038691141 -0.15148182 0.36423641 0
-0.032689504 -0.14848307 0.37241071 0
-0.010439046 -0.13926716 0.47066101 0
-0.014357112 -0.13961181 0.46563992 0
-0.018539868 -0.14113265 0.45874456 0
-0.017699882 -0.1382912 0.46001834 0
-0.010565732 -0.13363481 0.47085559 0
-0.0086900629 -0.13296956 0.47323924 0
-0.012622111 -0.12980545 0.4688437 0
-0.027682327 -0.1359463 0.37742925 0
-0.0050421059 -0.12667707 0.47839963 0
-0.0081812367 -0.1260525 0.47441313 0
-0.0082014427 -0.12425353 0.47425315 0
-0.015594132 -0.12570724 0.46304059 0
-0.017006766 -0.12570536 0.46040276 0
-0.040173329 -0.13377839 0.36115482 0
-0.0055403076 -0.12300303 0.47808823 0
-0.0098985657 -0.12324213 0.4728142 0
-0.037898429 -0.13018075 0.36361581 0
-0.0079060979 -0.12148261 0.47581193 0
-0.030873016 -0.12868285 0.3714675 0
-0.033620387 -0.12969299 0.36875659 0
-0.034044847 -0.12841401 0.3676073 0
-0.036719814 -0.1294409 0.36492151 0
-0.0081226528 -0.11965515 0.47592047 0
-0.03133928 -0.1273154 0.37013799 0
-0.035831355 -0.12332715 0.36162743 0
0.0001546368 -0.11322308 0.48592988 0
-0.0081810951 -0.1139206 0.47541973 0
-0.028998539 -0.12097448 0.37193412 0
-0.035311542 -0.12150212 0.36253491 0
-0.027833581 -0.1190899 0.37188178 0
-0.038287628 -0.12045269 0.35644668 0
-0.0056266785 -0.11068537 0.47978809 0
-0.0152428 -0.11233769 0.46085247 0
0.0001495257 -0.10874374 0.48686591 0
-0.019390203 -0.11336263 0.3912082 0
-0.035033144 -0.11501627 0.35719725 0
-0.0053175241 -0.10593609 0.48101774 0
-0.018256065 -0.10889882 0.39246544 0
-0.0073001906 -0.10207118 0.47678211 0
-0.016147166 -0.10519893 0.39531493 0
0.00069924816 -0.097469538 0.48854959 0
-0.0035924837 -0.096452385 0.48266691 0
-0.0039056502 -0.09465307 0.48272571 0
-0.0011405014 -0.093204111 0.48702726 0
-0.0024289824 -0.092540458 0.48577705 0
0.0014030486 -0.09059535 0.49046841 0
0.0021134913 -0.089498162 0.49172211 0
0.0068893507 -0.088594638 0.4971388 0
0.0038064197 -0.087127261 0.49489868 0
0.00030968338 -0.087762266 0.4895286 0
-0.011080943 -0.091894463 0.40286192 0
0.0032963678 -0.081399888 0.49648538 0
-0.016290028 -0.088168502 0.39140645 0
-0.0081959888 -0.083088115 0.40532362 0
-0.011522137 -0.083732918 0.40033022 0
0.004603833 -0.076477177 0.49926105 0
0.0008956939 -0.075640127 0.4964655 0
-0.0064600334 -0.080512702 0.4065538 0
-0.0072791204 -0.081227809 0.40511802 0
-0.010460094 -0.080235168 0.39983898 0
0.0026541948 -0.07311815 0.49855888 0
-0.0013025776 -0.066348195 0.49748051 0
9.8951161e-05 -0.06407246 0.4995704 0
-0.0030081496 -0.063936323 0.49622288 0
-0.00041609257 -0.062216125 0.49978361 0
-0.0027307719 -0.061053082 0.49735436 0
-0.0046302341 -0.057885662 0.49582568 0
-0.0054375939 -0.056116238 0.49577877 0
-0.005735971 -0.051176846 0.49717659 0
-0.0066393167 -0.048585162 0.49569896 0
-0.0074459389 -0.041601345 0.49665207 0
-0.0022558235 -0.036706381 0.50286168 0
-0.010355785 -0.037325986 0.49283412 0
-0.0059448257 -0.02846323 0.50105929 0
-0.0090822577 -0.028084263 0.49643728 0
-0.0038302913 -0.026037134 0.50307906 0
-0.0043737739 -0.027070299 0.50179839 0
-0.006993793 -0.021356314 0.50038254 0
-0.013179209 -0.013247043 0.49255729 0
-0.010016259 -0.011134565 0.49750233 0
-0.011050094 -0.0051392093 0.49612156 0
-0.014340464 -0.00010990351 0.49303305 0
-0.01435782 0.0043141991 0.49306133 0
-0.060652167 -0.0093772933 0.09064123 0
-0.054635849 -0.0069862232 0.11386435 0
-0.013409704 0.0079168528 0.49430382 0
-0.046207227 0.0059475824 0.14579576 0
-0.048432991 0.0058083311 0.14387994 0
-0.053607959 0.0054664463 0.13892229 0
-0.018308103 0.0074171945 0.16837229 0
-0.022966456 0.0087844953 0.16723746 0
-0.048869226 0.0092735142 0.14818262 0
-0.070153818 0.0085368603 0.12707573 0
-0.074530251 0.0082156584 0.12135199 0
-0.015058234 0.023002692 0.49246746 0
-0.047392126 0.011313386 0.15145026 0
-0.049443696 0.011210263 0.14974779 0
-0.058659051 0.012110703 0.1427879 0
-0.06389419 0.011988342 0.13741735 0
-0.014997195 0.024749845 0.49244106 0
-0.031280451 0.013439357 0.16624302 0
-0.039634101 0.014205828 0.16098534 0
-0.050984763 0.014104694 0.15176244 0
-0.055100713 0.012327157 0.14612322 0
-0.062412418 0.013526224 0.14082688 0
-0.059081189 0.015373133 0.14605287 0
-0.086004585 0.014991514 0.11162397 0
-0.018980727 0.028230801 0.48625353 0
-0.026614495 0.0185173 0.17716567 0
-0.030120578 0.018677823 0.17370616 0
-0.028417043 0.018716022 0.17531009 0
-0.036636822 0.018286414 0.16695657 0
-0.051419396 0.017515883 0.1541037 0
-0.016357161 0.030393571 0.48985061 0
-0.041494288 0.019208521 0.16370235 0
-0.061251178 0.018400118 0.14640969 0
-0.069145098 0.01869256 0.13901378 0
-0.016707413 0.032296605 0.49006134 0
-0.030453138 0.022085249 0.17705919 0
-0.038022943 0.022106998 0.1699609 0
-0.046876878 0.021997385 0.16219127 0
-0.070647776 0.020372033 0.13891979 0
-0.078380741 0.020809129 0.13012592 0
-0.041013155 0.023555487 0.1681982 0
-0.076850578 0.023196757 0.13456263 0
-0.039236166 0.026973136 0.17254668 0
-0.060797654 0.026793011 0.15364419 0
-0.062458627 0.02677615 0.15211122 0
-0.071324348 0.026734143 0.14333716 0
-0.044057131 0.028525583 0.16965386 0
-0.062218111 0.02840101 0.1535622 0
-0.029109439 0.031861477 0.18767372 0
-0.03090829 0.032210477 0.18618132 0
-0.033089191 0.031698599 0.18319374 0
-0.03413602 0.030732267 0.18169908 0
-0.040675115 0.032119654 0.17489107 0
-0.050287683 0.030593529 0.16515049 0
-0.053009436 0.031100951 0.16359876 0
-0.078474075 0.029551044 0.13732293 0
-0.040910352 0.033734471 0.17655571 0
-0.058779884 0.032734513 0.15915234 0
-0.070385307 0.033351183 0.1485602 0
-0.034414176 0.035085469 0.18473329 0
-0.049598053 0.035822496 0.16971728 0
-0.069980964 0.034721822 0.14995828 0
-0.019855127 0.045541495 0.48577863 0
-0.056320697 0.03587915 0.16339183 0
-0.018244602 0.046578839 0.48690084 0
-0.042722113 0.039050609 0.17804208 0
-0.035363637 0.040975943 0.18746988 0
-0.058919176 0.041058138 0.1632826 0
-0.091430783 0.039623186 0.12017113 0
-0.026431028 0.043079957 0.22450021 0
-0.028187912 0.044634268 0.22427171 0
-0.04272018 0.042131767 0.17926116 0
-0.063178308 0.042498067 0.15987143 0
-0.077545874 0.042167857 0.14476012 0
-0.084121637 0.041507855 0.13485387 0
-0.038437873 0.045080617 0.18613765 0
-0.044811986 0.044350654 0.1778603 0
-0.050114516 0.045359209 0.17322238 0
-0.058796048 0.044876605 0.16466981 0
-0.074310534 0.04391934 0.1480034 0
-0.080647752 0.044771701 0.14033715 0
-0.082103088 0.043257475 0.13742439 0
-0.088378146 0.044478327 0.12760243 0
-0.020233251 0.055266887 0.48453319 0
-0.036172289 0.047637165 0.19037832 0
-0.04374579 0.047167301 0.18073151 0
-0.053251669 0.047427833 0.17044337 0
-0.067885183 0.046560213 0.15634128 0
-0.070215836 0.046370715 0.15391465 0
-0.072444126 0.046831593 0.15118551 0
-0.074419454 0.045784026 0.14794546 0
-0.03064337 0.05016233 0.2245869 0
-0.037101179 0.049379945 0.19028082 0
-0.039174847 0.048289716 0.18743895 0
-0.038281471 0.049183294 0.18861397 0
-0.041675434 0.048056796 0.18316263 0
-0.047558453 0.049251109 0.1761903 0
-0.054913603 0.04987295 0.16907024 0
-0.074228801 0.050307333 0.1482365 0
-0.089614719 0.049407378 0.11947832 0
-0.094489366 0.049552456 0.11074425 0
-0.094284073 0.049595296 0.11049703 0
-0.019769408 0.058931246 0.48441035 0
-0.02196347 0.059811264 0.48038888 0
-0.049638227 0.051621467 0.17519389 0
-0.062277459 0.051524147 0.16238652 0
-0.065639079 0.051091656 0.15862699 0
-0.072235852 0.052108854 0.1506044 0
-0.019997701 0.061283067 0.48391363 0
-0.040442385 0.055307627 0.18708938 0
-0.042570148 0.055126622 0.1844745 0
-0.041763768 0.054282442 0.185877 0
-0.074454382 0.053770304 0.14641328 0
-0.045693554 0.055654377 0.18045834 0
-0.050034869 0.055615798 0.17507599 0
-0.074901953 0.05505456 0.14512587 0
-0.084927164 0.056236684 0.12373902 0
-0.088372 0.057274058 0.12110016 0
-0.089738004 0.057581097 0.11966637 0
-0.089905426 0.057934344 0.11977032 0
-0.091508329 0.057157278 0.11717832 0
-0.019940224 0.066616416 0.48371997 0
-0.057094276 0.060621202 0.16654599 0
-0.056422424 0.062477082 0.16647394 0
-0.078975737 0.061384231 0.13097534 0
-0.080083184 0.060234606 0.12984021 0
-0.045715749 0.063447937 0.17996928 0
-0.057136517 0.063501626 0.1651856 0
-0.075755537 0.063249931 0.13388945 0
-0.052530687 0.067426145 0.16925538 0
-0.058499768 0.067111075 0.16032965 0
-0.0777338 0.066968903 0.13442518 0
-0.033644348 0.073317379 0.40933239 0
-0.034795366 0.073607475 0.40781361 0
-0.069628291 0.068749502 0.14039403 0
-0.074384004 0.068226427 0.13707522 0
-0.086375982 0.069549352 0.12425859 0
-0.035971887 0.075499013 0.40770701 0
-0.076064676 0.071237847 0.13634767 0
-0.078437462 0.070646673 0.13418145 0
-0.080379486 0.07032764 0.13179938 0
-0.038053714 0.07766673 0.40630698 0
-0.061356183 0.072939396 0.14820392 0
-0.064583845 0.072448626 0.14562005 0
-0.072494775 0.073339209 0.13978489 0
-0.076386526 0.073081076 0.13627179 0
-0.037455097 0.078986362 0.40754223 0
-0.064443395 0.074256286 0.14676489 0
-0.06950292 0.074500948 0.14382346 0
-0.078430086 0.075134322 0.13473529 0
-0.080286652 0.074996546 0.13222088 0
-0.079544485 0.074153498 0.13349992 0
-0.082197227 0.075089127 0.12957874 0
-0.035543118 0.081226259 0.41194275 0
-0.069704689 0.07673198 0.14426014 0
-0.080286302 0.076987758 0.13215914 0
-0.068472385 0.078233123 0.14543754 0
-0.081181481 0.077994734 0.13083087 0
-0.039380163 0.085903287 0.40921843 0
-0.040802453 0.08518751 0.40653294 0
-0.047635525 0.084963158 0.39682025 0
-0.073601812 0.080416292 0.1407937 0
-0.02894453 0.087743789 0.42213741 0
-0.044965558 0.087538481 0.40283951 0
-0.046632104 0.086285979 0.3999137 0
-0.076538488 0.082987115 0.13681002 0
-0.023902021 0.089492753 0.47757947 0
-0.030223522 0.087960243 0.42061818 0
-0.056977734 0.088042751 0.38811991 0
-0.031532153 0.090165496 0.41946575 0
-0.05136656 0.089446664 0.39697629 0
-0.025561124 0.092740685 0.47466853 0
-0.032028928 0.091904104 0.41952187 0
-0.03539072 0.094818771 0.41637504 0
-0.036303252 0.093599319 0.41573033 0
-0.039167807 0.093465924 0.41200578 0
-0.041852556 0.093869984 0.40995884 0
-0.047811441 0.094915569 0.40471393 0
-0.062589817 0.093121767 0.38609782 0
-0.028855853 0.096180439 0.42290094 0
-0.03463437 0.09606418 0.4174048 0
-0.037874121 0.095981717 0.41434321 0
-0.066930093 0.096448779 0.38439086 0
-0.024333403 0.099073142 0.4756887 0
-0.035926096 0.09710595 0.4164719 0
-0.037188109 0.097848162 0.41539752 0
-0.047540341 0.099766031 0.40710557 0
-0.066721961 0.099395305 0.38719279 0
-0.068351746 0.099512562 0.38559002 0
-0.037402108 0.10185619 0.41619873 0
-0.052338358 0.10040732 0.40323392 0
-0.060363274 0.10169385 0.3958596 0
-0.063245893 0.10185896 0.39261326 0
-0.070422471 0.10288063 0.38534579 0
-0.032070301 0.10577524 0.42052859 0
-0.03515169 0.10708804 0.41847625 0
-0.036572117 0.10763092 0.41767839 0
-0.032947965 0.10923539 0.4201529 0
-0.06275095 0.10791761 0.3968347 0
-0.065729961 0.10845627 0.39441505 0
-0.072771154 0.1076957 0.38668254 0
-0.075864621 0.10816254 0.38384745 0
-0.081577986 0.10767189 0.37657058 0
-0.075388439 0.10958551 0.38516244 0
-0.066197686 0.11173326 0.39556476 0
-0.088795289 0.1113601 0.37052771 0
-0.080671325 0.11346915 0.38178825 0
-0.035991807 0.11669686 0.41937605 0
-0.092266917 0.11518601 0.36885712 0
-0.068175249 0.11767173 0.396846 0
-0.070260435 0.11691944 0.39463657 0
-0.089189954 0.11749434 0.37452221 0
-0.10496616 0.11778747 0.35379806 0
-0.10495515 0.11636269 0.35225108 0
-0.084501423 0.11851227 0.3801257 0
-0.096960902 0.11935537 0.36616924 0
-0.09984909 0.11825785 0.36173001 0
-0.031533163 0.12288108 0.42211682 0
-0.036673009 0.1233692 0.41955882 0
-0.087922662 0.122804 0.37913913 0
-0.095259532 0.12257193 0.37034473 0
-0.092960574 0.12467144 0.37391311 0
-0.034676798 0.12585525 0.42085293 0
-0.075729437 0.12621965 0.39264637 0
-0.1054694 0.12580101 0.35990545 0
-0.025279921 0.1286083 0.47839737 0
-0.093762733 0.12924603 0.37521952 0
-0.032063983 0.12990107 0.42196444 0
-0.079760171 0.13248035 0.39005944 0
-0.040293287 0.13348585 0.41787174 0
-0.025216348 0.13521421 0.47937128 0
-0.039413437 0.1350283 0.41809449 0
-0.10527682 0.13506271 0.364665 0
-0.10685103 0.13530697 0.36364809 0
-0.1173176 0.13546108 0.35150605 0
-0.033307508 0.13725728 0.42082411 0
-0.036307581 0.13814552 0.41942462 0
